1.0127202 0.5 0.5 2 1 0
1.0123941 0.5 0.5 2 1 0
1.0120679 0.5 0.5 2 1 0
1.0117417 0.5 0.5 2 1 0
1.0114156 0.5 0.5 2 1 0
1.0110894 0.5 0.5 2 1 0
1.0107633 0.5 0.5 2 1 0
1.0104371 0.5 0.5 2 1 0
1.0101109 0.5 0.5 2 1 0
1.0097848 0.5 0.5 2 1 0
1.0094586 0.5 0.5 2 1 0
1.0091325 0.5 0.5 2 1 0
1.0088063 0.5 0.5 2 1 0
1.0084801 0.5 0.5 2 1 0
1.008154 0.5 0.5 2 1 0
1.0078278 0.5 0.5 2 1 0
1.0075017 0.5 0.5 2 1 0
1.0071755 0.5 0.5 2 1 0
1.0068493 0.5 0.5 2 1 0
1.0065232 0.5 0.5 2 1 0
1.006197 0.5 0.5 2 1 0
1.0058709 0.5 0.5 2 1 0
1.0055447 0.5 0.5 2 1 0
1.0052185 0.5 0.5 2 1 0
1.0048924 0.5 0.5 2 1 0
1.0045662 0.5 0.5 2 1 0
1.0042401 0.5 0.5 2 1 0
1.0039139 0.5 0.5 2 1 0
1.0035878 0.5 0.5 2 1 0
1.0032616 0.5 0.5 2 1 0
1.0029354 0.5 0.5 2 1 0
1.0026093 0.5 0.5 2 1 0
1.0022831 0.5 0.5 2 1 0
1.001957 0.5 0.5 2 1 0
1.0016308 0.5 0.5 2 1 0
1.0013046 0.5 0.5 2 1 0
1.0009785 0.5 0.5 2 1 0
1.0006523 0.5 0.5 2 1 0
1.0003262 0.5 0.5 2 1 0
1.0 0.5 0.5 2 1 0
1.3341463 0.5 0.5 2 2 0
1.3341463 0.510481 0.510481 2 2 0
1.3340528 0.5118484 0.5118484 2 2 0
1.3339592 0.5136216 0.5136216 2 2 0
1.3338657 0.5160126 0.5160126 2 2 0
1.3337722 0.5194125 0.5194125 2 2 0
1.3336787 0.5207809 0.5207809 2 2 0
1.3335852 0.5217653 0.5217653 2 2 0
1.3334916 0.5228451 0.5228451 2 2 0
1.3333981 0.5240347 0.5240347 2 2 0
1.3333046 0.5253519 0.5253519 2 2 0
1.3332111 0.5268183 0.5268183 2 2 0
1.3331176 0.5288012 0.5288012 2 2 0
1.333024 0.5301875 0.5301875 2 2 0
1.3329305 0.5309443 0.5309443 2 2 0
1.332837 0.5317747 0.5317747 2 2 0
1.3327435 0.5326489 0.5326489 2 2 0
1.33265 0.5335707 0.5335707 2 2 0
1.3325565 0.5345441 0.5345441 2 2 0
1.3324629 0.5355733 0.5355733 2 2 0
1.3323694 0.5366634 0.5366634 2 2 0
1.3322759 0.53782 0.53782 2 2 0
1.3321824 0.5390492 0.5390492 2 2 0
1.3320889 0.5401662 0.5401662 2 2 0
1.3319953 0.5407993 0.5407993 2 2 0
1.3319018 0.5414513 0.5414513 2 2 0
1.3318083 0.5421231 0.5421231 2 2 0
1.3317148 0.5428155 0.5428155 2 2 0
1.3316213 0.5435295 0.5435295 2 2 0
1.3315277 0.5442661 0.5442661 2 2 0
1.3314342 0.5450265 0.5450265 2 2 0
1.3313407 0.5458117 0.5458117 2 2 0
1.3312472 0.546623 0.546623 2 2 0
1.3311537 0.5474618 0.5474618 2 2 0
1.3310602 0.5483294 0.5483294 2 2 0
1.3309666 0.5492273 0.5492273 2 2 0
1.3308731 0.5500855 0.5500855 2 2 0
1.3307796 0.5506042 0.5506042 2 2 0
1.3306861 0.5511327 0.5511327 2 2 0
1.3305926 0.5516711 0.5516711 2 2 0
1.330499 0.5522198 0.5522198 2 2 0
1.3304055 0.552779 0.552779 2 2 0
1.330312 0.553349 0.553349 2 2 0
1.3302185 0.5539302 0.5539302 2 2 0
1.330125 0.5545229 0.5545229 2 2 0
1.3300314 0.5551274 0.5551274 2 2 0
1.3299379 0.5557441 0.5557441 2 2 0
1.3298444 0.5563733 0.5563733 2 2 0
1.3297509 0.5570154 0.5570154 2 2 0
1.3296574 0.5576709 0.5576709 2 2 0
1.3295639 0.55834 0.55834 2 2 0
1.3294703 0.5590234 0.5590234 2 2 0
1.3293768 0.5597213 0.5597213 2 2 0
1.3292833 0.5602613 0.5602613 2 2 0
1.3291898 0.5606963 0.5606963 2 2 0
1.3290963 0.5611365 0.5611365 2 2 0
1.3290027 0.5615823 0.5615823 2 2 0
1.3289092 0.5620335 0.5620335 2 2 0
1.3288157 0.5624903 0.5624903 2 2 0
1.3287222 0.5633009 0.5633009 2 2 0
1.3286287 0.5636644 0.5636644 2 2 0
1.3285351 0.5639948 0.5639948 2 2 0
1.3284416 0.5645259 0.5645259 2 2 0
1.3283481 0.5650671 0.5650671 2 2 0
1.3282546 0.5656163 0.5656163 2 2 0
1.3281611 0.5661736 0.5661736 2 2 0
1.3280676 0.5667394 0.5667394 2 2 0
1.327974 0.5673136 0.5673136 2 2 0
1.3278805 0.5678966 0.5678966 2 2 0
1.327787 0.5684886 0.5684886 2 2 0
1.3276935 0.5690897 0.5690897 2 2 0
1.3276 0.5697001 0.5697001 2 2 0
1.3275064 0.5702073 0.5702073 2 2 0
1.3274129 0.5706132 0.5706132 2 2 0
1.3273194 0.5710229 0.5710229 2 2 0
1.3272259 0.5714365 0.5714365 2 2 0
1.3271324 0.5718541 0.5718541 2 2 0
1.3270388 0.5722757 0.5722757 2 2 0
1.3269453 0.5727014 0.5727014 2 2 0
1.3268518 0.5731311 0.5731311 2 2 0
1.3267583 0.573565 0.573565 2 2 0
1.3266648 0.5740032 0.5740032 2 2 0
1.3265713 0.5744456 0.5744456 2 2 0
1.3264777 0.5748924 0.5748924 2 2 0
1.3263842 0.5753436 0.5753436 2 2 0
1.3262907 0.5757992 0.5757992 2 2 0
1.3261972 0.5762594 0.5762594 2 2 0
1.3261037 0.5767242 0.5767242 2 2 0
1.3260101 0.5771936 0.5771936 2 2 0
1.3259166 0.5776677 0.5776677 2 2 0
1.3258231 0.5781467 0.5781467 2 2 0
1.3257296 0.5786305 0.5786305 2 2 0
1.3256361 0.5791192 0.5791192 2 2 0
1.3255425 0.579613 0.579613 2 2 0
1.325449 0.5800765 0.5800765 2 2 0
1.3253555 0.5804206 0.5804206 2 2 0
1.325262 0.5807668 0.5807668 2 2 0
1.3251685 0.5811153 0.5811153 2 2 0
1.325075 0.5814659 0.5814659 2 2 0
1.3249814 0.5818188 0.5818188 2 2 0
1.3248879 0.582174 0.582174 2 2 0
1.3247944 0.5825315 0.5825315 2 2 0
1.3247009 0.5828912 0.5828912 2 2 0
1.3246074 0.5832533 0.5832533 2 2 0
1.3245138 0.5837328 0.5837328 2 2 0
1.3244203 0.5843141 0.5843141 2 2 0
1.3243268 0.5845637 0.5845637 2 2 0
1.3242333 0.5848293 0.5848293 2 2 0
1.3241398 0.5852176 0.5852176 2 2 0
1.3240462 0.585635 0.585635 2 2 0
1.3239527 0.5860556 0.5860556 2 2 0
1.3238592 0.5864794 0.5864794 2 2 0
1.3237657 0.5869065 0.5869065 2 2 0
1.3236722 0.587337 0.587337 2 2 0
1.3235787 0.5877708 0.5877708 2 2 0
1.3234851 0.588208 0.588208 2 2 0
1.3233916 0.5886487 0.5886487 2 2 0
1.3232981 0.5890929 0.5890929 2 2 0
1.3232046 0.5895405 0.5895405 2 2 0
1.3231111 0.5899917 0.5899917 2 2 0
1.3230175 0.5903183 0.5903183 2 2 0
1.322924 0.5906442 0.5906442 2 2 0
1.3228305 0.5909717 0.5909717 2 2 0
1.322737 0.5913008 0.5913008 2 2 0
1.3226435 0.5916317 0.5916317 2 2 0
1.3225499 0.5919642 0.5919642 2 2 0
1.3224564 0.5922984 0.5922984 2 2 0
1.3223629 0.5926343 0.5926343 2 2 0
1.3222694 0.592972 0.592972 2 2 0
1.3221759 0.5933113 0.5933113 2 2 0
1.3220824 0.5936524 0.5936524 2 2 0
1.3219888 0.5939953 0.5939953 2 2 0
1.3218953 0.5943399 0.5943399 2 2 0
1.3218018 0.5946862 0.5946862 2 2 0
1.3217083 0.5950344 0.5950344 2 2 0
1.3216148 0.5953843 0.5953843 2 2 0
1.3215212 0.595736 0.595736 2 2 0
1.3214277 0.5960896 0.5960896 2 2 0
1.3213342 0.5964449 0.5964449 2 2 0
1.3212407 0.5968021 0.5968021 2 2 0
1.3211472 0.5971611 0.5971611 2 2 0
1.3210536 0.597522 0.597522 2 2 0
1.3209601 0.5978848 0.5978848 2 2 0
1.3208666 0.5982494 0.5982494 2 2 0
1.3207731 0.5986159 0.5986159 2 2 0
1.3206796 0.5989843 0.5989843 2 2 0
1.3205861 0.599362 0.599362 2 2 0
1.3204925 0.5997358 0.5997358 2 2 0
1.320399 0.6000746 0.6000746 2 2 0
1.3203055 0.6003518 0.6003518 2 2 0
1.320212 0.600667 0.600667 2 2 0
1.3201185 0.6010117 0.6010117 2 2 0
1.3200249 0.6013117 0.6013117 2 2 0
1.3199314 0.6015976 0.6015976 2 2 0
1.3198379 0.6018861 0.6018861 2 2 0
1.3197444 0.6021769 0.6021769 2 2 0
1.3196509 0.602491 0.602491 2 2 0
1.3195573 0.6028063 0.6028063 2 2 0
1.3194638 0.6031229 0.6031229 2 2 0
1.3193703 0.6034409 0.6034409 2 2 0
1.3192768 0.6037601 0.6037601 2 2 0
1.3191833 0.6040805 0.6040805 2 2 0
1.3190898 0.6044023 0.6044023 2 2 0
1.3189962 0.6047254 0.6047254 2 2 0
1.3189027 0.6050498 0.6050498 2 2 0
1.3188092 0.6053755 0.6053755 2 2 0
1.3187157 0.6057026 0.6057026 2 2 0
1.3186222 0.6060309 0.6060309 2 2 0
1.3185286 0.6063606 0.6063606 2 2 0
1.3184351 0.6066916 0.6066916 2 2 0
1.3183416 0.607024 0.607024 2 2 0
1.3182481 0.6073577 0.6073577 2 2 0
1.3181546 0.6076927 0.6076927 2 2 0
1.318061 0.6080291 0.6080291 2 2 0
1.3179675 0.6083669 0.6083669 2 2 0
1.317874 0.608706 0.608706 2 2 0
1.3177805 0.6090466 0.6090466 2 2 0
1.317687 0.6093884 0.6093884 2 2 0
1.3175935 0.6097317 0.6097317 2 2 0
1.3174999 0.6100579 0.6100579 2 2 0
1.3174064 0.6103201 0.6103201 2 2 0
1.3173129 0.6105829 0.6105829 2 2 0
1.3172194 0.6108463 0.6108463 2 2 0
1.3171259 0.6111105 0.6111105 2 2 0
1.3170323 0.6113753 0.6113753 2 2 0
1.3169388 0.6116407 0.6116407 2 2 0
1.3168453 0.6119068 0.6119068 2 2 0
1.3167518 0.6121736 0.6121736 2 2 0
1.3166583 0.6124411 0.6124411 2 2 0
1.3165647 0.6127092 0.6127092 2 2 0
1.3164712 0.6129779 0.6129779 2 2 0
1.3163777 0.6132474 0.6132474 2 2 0
1.3162842 0.6135175 0.6135175 2 2 0
1.3161907 0.6138551 0.6138551 2 2 0
1.3160971 0.6142447 0.6142447 2 2 0
1.3160036 0.6145592 0.6145592 2 2 0
1.3159101 0.6147691 0.6147691 2 2 0
1.3158166 0.6149893 0.6149893 2 2 0
1.3157231 0.6152478 0.6152478 2 2 0
1.3156296 0.6155514 0.6155514 2 2 0
1.315536 0.6158559 0.6158559 2 2 0
1.3154425 0.6161615 0.6161615 2 2 0
1.315349 0.6164679 0.6164679 2 2 0
1.3152555 0.6167754 0.6167754 2 2 0
1.315162 0.6170838 0.6170838 2 2 0
1.3150684 0.6173932 0.6173932 2 2 0
1.3149749 0.6177035 0.6177035 2 2 0
1.3148814 0.6180148 0.6180148 2 2 0
1.3147879 0.6183271 0.6183271 2 2 0
1.3146944 0.6186404 0.6186404 2 2 0
1.3146008 0.6189547 0.6189547 2 2 0
1.3145073 0.6192699 0.6192699 2 2 0
1.3144138 0.6195861 0.6195861 2 2 0
1.3143203 0.6199033 0.6199033 2 2 0
1.3142268 0.6201717 0.6201717 2 2 0
1.3141333 0.620419 0.620419 2 2 0
1.3140397 0.6206666 0.6206666 2 2 0
1.3139462 0.6209148 0.6209148 2 2 0
1.3138527 0.6211634 0.6211634 2 2 0
1.3137592 0.6214125 0.6214125 2 2 0
1.3136657 0.6216621 0.6216621 2 2 0
1.3135721 0.6219122 0.6219122 2 2 0
1.3134786 0.6221627 0.6221627 2 2 0
1.3133851 0.6224136 0.6224136 2 2 0
1.3132916 0.6226651 0.6226651 2 2 0
1.3131981 0.622917 0.622917 2 2 0
1.3131045 0.6231694 0.6231694 2 2 0
1.313011 0.6234222 0.6234222 2 2 0
1.3129175 0.6236755 0.6236755 2 2 0
1.312824 0.6239293 0.6239293 2 2 0
1.3127305 0.6241835 0.6241835 2 2 0
1.312637 0.6244382 0.6244382 2 2 0
1.3125434 0.6246934 0.6246934 2 2 0
1.3124499 0.624949 0.624949 2 2 0
1.3123564 0.625205 0.625205 2 2 0
1.3122629 0.6254952 0.6254952 2 2 0
1.3121694 0.6258005 0.6258005 2 2 0
1.3120758 0.6261221 0.6261221 2 2 0
1.3119823 0.6264333 0.6264333 2 2 0
1.3118888 0.626648 0.626648 2 2 0
1.3117953 0.6268315 0.6268315 2 2 0
1.3117018 0.6270805 0.6270805 2 2 0
1.3116082 0.627367 0.627367 2 2 0
1.3115147 0.6276541 0.6276541 2 2 0
1.3114212 0.6279419 0.6279419 2 2 0
1.3113277 0.6282304 0.6282304 2 2 0
1.3112342 0.6285196 0.6285196 2 2 0
1.3111407 0.6288094 0.6288094 2 2 0
1.3110471 0.6291 0.6291 2 2 0
1.3109536 0.6293912 0.6293912 2 2 0
1.3108601 0.6296831 0.6296831 2 2 0
1.3107666 0.6299757 0.6299757 2 2 0
1.3106731 0.6302126 0.6302126 2 2 0
1.3105795 0.6304446 0.6304446 2 2 0
1.310486 0.630677 0.630677 2 2 0
1.3103925 0.6309097 0.6309097 2 2 0
1.310299 0.6311427 0.6311427 2 2 0
1.3102055 0.6313761 0.6313761 2 2 0
1.3101119 0.6316097 0.6316097 2 2 0
1.3100184 0.6318437 0.6318437 2 2 0
1.3099249 0.632078 0.632078 2 2 0
1.3098314 0.6323126 0.6323126 2 2 0
1.3097379 0.6325475 0.6325475 2 2 0
1.3096444 0.6327827 0.6327827 2 2 0
1.3095508 0.6330182 0.6330182 2 2 0
1.3094573 0.6332541 0.6332541 2 2 0
1.3093638 0.6334902 0.6334902 2 2 0
1.3092703 0.6337267 0.6337267 2 2 0
1.3091768 0.6339634 0.6339634 2 2 0
1.3090832 0.6342005 0.6342005 2 2 0
1.3089897 0.6344378 0.6344378 2 2 0
1.3088962 0.6346755 0.6346755 2 2 0
1.3088027 0.6349134 0.6349134 2 2 0
1.3087092 0.6351516 0.6351516 2 2 0
1.3086156 0.6353902 0.6353902 2 2 0
1.3085221 0.635629 0.635629 2 2 0
1.3084286 0.6358681 0.6358681 2 2 0
1.3083351 0.6361315 0.6361315 2 2 0
1.3082416 0.6363995 0.6363995 2 2 0
1.3081481 0.6366809 0.6366809 2 2 0
1.3080545 0.6369605 0.6369605 2 2 0
1.307961 0.6372323 0.6372323 2 2 0
1.3078675 0.6374265 0.6374265 2 2 0
1.307774 0.637606 0.637606 2 2 0
1.3076805 0.6378552 0.6378552 2 2 0
1.3075869 0.6381214 0.6381214 2 2 0
1.3074934 0.6383881 0.6383881 2 2 0
1.3073999 0.6386552 0.6386552 2 2 0
1.3073064 0.6389228 0.6389228 2 2 0
1.3072129 0.6391908 0.6391908 2 2 0
1.3071193 0.6394593 0.6394593 2 2 0
1.3070258 0.6397283 0.6397283 2 2 0
1.3069323 0.6399977 0.6399977 2 2 0
1.3068388 0.6402149 0.6402149 2 2 0
1.3067453 0.6404318 0.6404318 2 2 0
1.3066518 0.6406489 0.6406489 2 2 0
1.3065582 0.6408662 0.6408662 2 2 0
1.3064647 0.6410837 0.6410837 2 2 0
1.3063712 0.6413014 0.6413014 2 2 0
1.3062777 0.6415193 0.6415193 2 2 0
1.3061842 0.6417374 0.6417374 2 2 0
1.3060906 0.6419556 0.6419556 2 2 0
1.3059971 0.6421741 0.6421741 2 2 0
1.3059036 0.6423927 0.6423927 2 2 0
1.3058101 0.6426116 0.6426116 2 2 0
1.3057166 0.6428306 0.6428306 2 2 0
1.305623 0.6430498 0.6430498 2 2 0
1.3055295 0.6432692 0.6432692 2 2 0
1.305436 0.6434887 0.6434887 2 2 0
1.3053425 0.6437084 0.6437084 2 2 0
1.305249 0.6439283 0.6439283 2 2 0
1.3051555 0.6441484 0.6441484 2 2 0
1.3050619 0.6443687 0.6443687 2 2 0
1.3049684 0.6445891 0.6445891 2 2 0
1.3048749 0.6448096 0.6448096 2 2 0
1.3047814 0.6450304 0.6450304 2 2 0
1.3046879 0.6452513 0.6452513 2 2 0
1.3045943 0.6454724 0.6454724 2 2 0
1.3045008 0.6456936 0.6456936 2 2 0
1.3044073 0.6459374 0.6459374 2 2 0
1.3043138 0.646185 0.646185 2 2 0
1.3042203 0.6464398 0.6464398 2 2 0
1.3041267 0.6466996 0.6466996 2 2 0
1.3040332 0.6469531 0.6469531 2 2 0
1.3039397 0.6471729 0.6471729 2 2 0
1.3038462 0.6473248 0.6473248 2 2 0
1.3037527 0.6475195 0.6475195 2 2 0
1.3036592 0.6477644 0.6477644 2 2 0
1.3035656 0.6480096 0.6480096 2 2 0
1.3034721 0.648255 0.648255 2 2 0
1.3033786 0.6485007 0.6485007 2 2 0
1.3032851 0.6487467 0.6487467 2 2 0
1.3031916 0.648993 0.648993 2 2 0
1.303098 0.6492396 0.6492396 2 2 0
1.3030045 0.6494864 0.6494864 2 2 0
1.302911 0.6497335 0.6497335 2 2 0
1.3028175 0.6499809 0.6499809 2 2 0
1.302724 0.6501862 0.6501862 2 2 0
1.3026304 0.650388 0.650388 2 2 0
1.3025369 0.6505899 0.6505899 2 2 0
1.3024434 0.650792 0.650792 2 2 0
1.3023499 0.6509941 0.6509941 2 2 0
1.3022564 0.6511963 0.6511963 2 2 0
1.3021629 0.6513986 0.6513986 2 2 0
1.3020693 0.651601 0.651601 2 2 0
1.3019758 0.6518035 0.6518035 2 2 0
1.3018823 0.652006 0.652006 2 2 0
1.3017888 0.6522087 0.6522087 2 2 0
1.3016953 0.6524114 0.6524114 2 2 0
1.3016017 0.6526142 0.6526142 2 2 0
1.3015082 0.6528171 0.6528171 2 2 0
1.3014147 0.6530201 0.6530201 2 2 0
1.3013212 0.6532232 0.6532232 2 2 0
1.3012277 0.6534263 0.6534263 2 2 0
1.3011341 0.6536295 0.6536295 2 2 0
1.3010406 0.6538327 0.6538327 2 2 0
1.3009471 0.6540361 0.6540361 2 2 0
1.3008536 0.6542395 0.6542395 2 2 0
1.3007601 0.654443 0.654443 2 2 0
1.3006666 0.6546465 0.6546465 2 2 0
1.300573 0.6548501 0.6548501 2 2 0
1.3004795 0.6550778 0.6550778 2 2 0
1.300386 0.6553095 0.6553095 2 2 0
1.3002925 0.6555502 0.6555502 2 2 0
1.300199 0.6557972 0.6557972 2 2 0
1.3001054 0.656039 0.656039 2 2 0
1.3000119 0.6562272 0.6562272 2 2 0
1.2999184 0.6563821 0.6563821 2 2 0
1.2998249 0.6565622 0.6565622 2 2 0
1.2997314 0.6567574 0.6567574 2 2 0
1.2996378 0.6569818 0.6569818 2 2 0
1.2995443 0.6572064 0.6572064 2 2 0
1.2994508 0.6574311 0.6574311 2 2 0
1.2993573 0.657656 0.657656 2 2 0
1.2992638 0.6578811 0.6578811 2 2 0
1.2991703 0.6581063 0.6581063 2 2 0
1.2990767 0.6583316 0.6583316 2 2 0
1.2989832 0.6585571 0.6585571 2 2 0
1.2988897 0.6587827 0.6587827 2 2 0
1.2987962 0.6590085 0.6590085 2 2 0
1.2987027 0.6592344 0.6592344 2 2 0
1.2986091 0.6594605 0.6594605 2 2 0
1.2985156 0.6596867 0.6596867 2 2 0
1.2984221 0.659913 0.659913 2 2 0
1.2983286 0.660115 0.660115 2 2 0
1.2982351 0.6603018 0.6603018 2 2 0
1.2981415 0.6604886 0.6604886 2 2 0
1.298048 0.6606754 0.6606754 2 2 0
1.2979545 0.6608623 0.6608623 2 2 0
1.297861 0.6610491 0.6610491 2 2 0
1.2977675 0.6612359 0.6612359 2 2 0
1.2976739 0.6614228 0.6614228 2 2 0
1.2975804 0.6616097 0.6616097 2 2 0
1.2974869 0.6617965 0.6617965 2 2 0
1.2973934 0.6619834 0.6619834 2 2 0
1.2972999 0.6621703 0.6621703 2 2 0
1.2972064 0.6623572 0.6623572 2 2 0
1.2971128 0.662544 0.662544 2 2 0
1.2970193 0.6627309 0.6627309 2 2 0
1.2969258 0.6629178 0.6629178 2 2 0
1.2968323 0.6631046 0.6631046 2 2 0
1.2967388 0.6632915 0.6632915 2 2 0
1.2966452 0.6634783 0.6634783 2 2 0
1.2965517 0.6636899 0.6636899 2 2 0
1.2964582 0.6639087 0.6639087 2 2 0
1.2963647 0.6641464 0.6641464 2 2 0
1.2962712 0.6643844 0.6643844 2 2 0
1.2961776 0.6645782 0.6645782 2 2 0
1.2960841 0.664742 0.664742 2 2 0
1.2959906 0.6649025 0.6649025 2 2 0
1.2958971 0.6650812 0.6650812 2 2 0
1.2958036 0.6652597 0.6652597 2 2 0
1.2957101 0.6654475 0.6654475 2 2 0
1.2956165 0.6656526 0.6656526 2 2 0
1.295523 0.6658578 0.6658578 2 2 0
1.2954295 0.6660631 0.6660631 2 2 0
1.295336 0.6662683 0.6662683 2 2 0
1.2952425 0.6664737 0.6664737 2 2 0
1.2951489 0.6666791 0.6666791 2 2 0
1.2950554 0.6668845 0.6668845 2 2 0
1.2949619 0.6670901 0.6670901 2 2 0
1.2948684 0.6672956 0.6672956 2 2 0
1.2947749 0.6675012 0.6675012 2 2 0
1.2946813 0.6677069 0.6677069 2 2 0
1.2945878 0.6679125 0.6679125 2 2 0
1.2944943 0.6681183 0.6681183 2 2 0
1.2944008 0.668324 0.668324 2 2 0
1.2943073 0.6685299 0.6685299 2 2 0
1.2942138 0.6687357 0.6687357 2 2 0
1.2941202 0.6689416 0.6689416 2 2 0
1.2940267 0.6691475 0.6691475 2 2 0
1.2939332 0.6693534 0.6693534 2 2 0
1.2938397 0.6695594 0.6695594 2 2 0
1.2937462 0.6697654 0.6697654 2 2 0
1.2936526 0.6699714 0.6699714 2 2 0
1.2935591 0.6701479 0.6701479 2 2 0
1.2934656 0.6703196 0.6703196 2 2 0
1.2933721 0.6704913 0.6704913 2 2 0
1.2932786 0.6706629 0.6706629 2 2 0
1.293185 0.6708344 0.6708344 2 2 0
1.2930915 0.6710059 0.6710059 2 2 0
1.292998 0.6711773 0.6711773 2 2 0
1.2929045 0.6713487 0.6713487 2 2 0
1.292811 0.67152 0.67152 2 2 0
1.2927175 0.6716912 0.6716912 2 2 0
1.2926239 0.6718823 0.6718823 2 2 0
1.2925304 0.6721026 0.6721026 2 2 0
1.2924369 0.6723247 0.6723247 2 2 0
1.2923434 0.6724994 0.6724994 2 2 0
1.2922499 0.672671 0.672671 2 2 0
1.2921563 0.6728396 0.6728396 2 2 0
1.2920628 0.6730091 0.6730091 2 2 0
1.2919693 0.6731846 0.6731846 2 2 0
1.2918758 0.6733585 0.6733585 2 2 0
1.2917823 0.6735307 0.6735307 2 2 0
1.2916887 0.6737062 0.6737062 2 2 0
1.2915952 0.6738934 0.6738934 2 2 0
1.2915017 0.6740806 0.6740806 2 2 0
1.2914082 0.6742678 0.6742678 2 2 0
1.2913147 0.674455 0.674455 2 2 0
1.2912212 0.6746422 0.6746422 2 2 0
1.2911276 0.6748294 0.6748294 2 2 0
1.2910341 0.6750166 0.6750166 2 2 0
1.2909406 0.6752037 0.6752037 2 2 0
1.2908471 0.6753908 0.6753908 2 2 0
1.2907536 0.6755779 0.6755779 2 2 0
1.29066 0.675765 0.675765 2 2 0
1.2905665 0.675952 0.675952 2 2 0
1.290473 0.676139 0.676139 2 2 0
1.2903795 0.676326 0.676326 2 2 0
1.290286 0.676513 0.676513 2 2 0
1.2901924 0.6766999 0.6766999 2 2 0
1.2900989 0.6768868 0.6768868 2 2 0
1.2900054 0.6770736 0.6770736 2 2 0
1.2899119 0.6772604 0.6772604 2 2 0
1.2898184 0.6774472 0.6774472 2 2 0
1.2897249 0.6776339 0.6776339 2 2 0
1.2896313 0.677823 0.677823 2 2 0
1.2895378 0.6780191 0.6780191 2 2 0
1.2894443 0.6782133 0.6782133 2 2 0
1.2893508 0.6784056 0.6784056 2 2 0
1.2892573 0.678596 0.678596 2 2 0
1.2891637 0.6787867 0.6787867 2 2 0
1.2890702 0.678977 0.678977 2 2 0
1.2889767 0.679164 0.679164 2 2 0
1.2888832 0.6793478 0.6793478 2 2 0
1.2887897 0.6795285 0.6795285 2 2 0
1.2886961 0.6796933 0.6796933 2 2 0
1.2886026 0.679897 0.679897 2 2 0
1.2885091 0.6800889 0.6800889 2 2 0
1.2884156 0.6802666 0.6802666 2 2 0
1.2883221 0.6804416 0.6804416 2 2 0
1.2882286 0.6806139 0.6806139 2 2 0
1.288135 0.6807861 0.6807861 2 2 0
1.2880415 0.680957 0.680957 2 2 0
1.287948 0.6811263 0.6811263 2 2 0
1.2878545 0.6812942 0.6812942 2 2 0
1.287761 0.6814606 0.6814606 2 2 0
1.2876674 0.6816257 0.6816257 2 2 0
1.2875739 0.6817959 0.6817959 2 2 0
1.2874804 0.6819667 0.6819667 2 2 0
1.2873869 0.6821374 0.6821374 2 2 0
1.2872934 0.6823081 0.6823081 2 2 0
1.2871998 0.6824787 0.6824787 2 2 0
1.2871063 0.6826493 0.6826493 2 2 0
1.2870128 0.6828198 0.6828198 2 2 0
1.2869193 0.6829902 0.6829902 2 2 0
1.2868258 0.6831606 0.6831606 2 2 0
1.2867323 0.6833308 0.6833308 2 2 0
1.2866387 0.683501 0.683501 2 2 0
1.2865452 0.6836712 0.6836712 2 2 0
1.2864517 0.6838412 0.6838412 2 2 0
1.2863582 0.6840112 0.6840112 2 2 0
1.2862647 0.6841811 0.6841811 2 2 0
1.2861711 0.6843509 0.6843509 2 2 0
1.2860776 0.6845206 0.6845206 2 2 0
1.2859841 0.6846902 0.6846902 2 2 0
1.2858906 0.6848598 0.6848598 2 2 0
1.2857971 0.6850293 0.6850293 2 2 0
1.2857035 0.685208 0.685208 2 2 0
1.28561 0.6853966 0.6853966 2 2 0
1.2855165 0.6855835 0.6855835 2 2 0
1.285423 0.6857688 0.6857688 2 2 0
1.2853295 0.6859638 0.6859638 2 2 0
1.285236 0.6861583 0.6861583 2 2 0
1.2851424 0.6863498 0.6863498 2 2 0
1.2850489 0.6865211 0.6865211 2 2 0
1.2849554 0.686657 0.686657 2 2 0
1.2848619 0.6868022 0.6868022 2 2 0
1.2847684 0.6869582 0.6869582 2 2 0
1.2846748 0.6871239 0.6871239 2 2 0
1.2845813 0.687308 0.687308 2 2 0
1.2844878 0.6874921 0.6874921 2 2 0
1.2843943 0.6876762 0.6876762 2 2 0
1.2843008 0.6878603 0.6878603 2 2 0
1.2842072 0.6880442 0.6880442 2 2 0
1.2841137 0.6882282 0.6882282 2 2 0
1.2840202 0.688412 0.688412 2 2 0
1.2839267 0.6885959 0.6885959 2 2 0
1.2838332 0.6887796 0.6887796 2 2 0
1.2837397 0.6889633 0.6889633 2 2 0
1.2836461 0.689147 0.689147 2 2 0
1.2835526 0.6893306 0.6893306 2 2 0
1.2834591 0.6895141 0.6895141 2 2 0
1.2833656 0.6896976 0.6896976 2 2 0
1.2832721 0.689881 0.689881 2 2 0
1.2831785 0.6900546 0.6900546 2 2 0
1.283085 0.69021 0.69021 2 2 0
1.2829915 0.6903654 0.6903654 2 2 0
1.282898 0.6905207 0.6905207 2 2 0
1.2828045 0.6906759 0.6906759 2 2 0
1.2827109 0.6908309 0.6908309 2 2 0
1.2826174 0.6909859 0.6909859 2 2 0
1.2825239 0.6911407 0.6911407 2 2 0
1.2824304 0.6912955 0.6912955 2 2 0
1.2823369 0.6914501 0.6914501 2 2 0
1.2822434 0.6916046 0.6916046 2 2 0
1.2821498 0.691759 0.691759 2 2 0
1.2820563 0.6919133 0.6919133 2 2 0
1.2819628 0.6920674 0.6920674 2 2 0
1.2818693 0.6922215 0.6922215 2 2 0
1.2817758 0.6923862 0.6923862 2 2 0
1.2816822 0.6925676 0.6925676 2 2 0
1.2815887 0.6927582 0.6927582 2 2 0
1.2814952 0.6929574 0.6929574 2 2 0
1.2814017 0.6931188 0.6931188 2 2 0
1.2813082 0.69327 0.69327 2 2 0
1.2812146 0.6934189 0.6934189 2 2 0
1.2811211 0.6935658 0.6935658 2 2 0
1.2810276 0.6937218 0.6937218 2 2 0
1.2809341 0.6938767 0.6938767 2 2 0
1.2808406 0.6940304 0.6940304 2 2 0
1.2807471 0.6941829 0.6941829 2 2 0
1.2806535 0.6943382 0.6943382 2 2 0
1.28056 0.694505 0.694505 2 2 0
1.2804665 0.6946716 0.6946716 2 2 0
1.280373 0.6948382 0.6948382 2 2 0
1.2802795 0.6950047 0.6950047 2 2 0
1.2801859 0.6951711 0.6951711 2 2 0
1.2800924 0.6953375 0.6953375 2 2 0
1.2799989 0.6955037 0.6955037 2 2 0
1.2799054 0.6956698 0.6956698 2 2 0
1.2798119 0.6958358 0.6958358 2 2 0
1.2797183 0.6960018 0.6960018 2 2 0
1.2796248 0.6961676 0.6961676 2 2 0
1.2795313 0.6963333 0.6963333 2 2 0
1.2794378 0.6964989 0.6964989 2 2 0
1.2793443 0.6966644 0.6966644 2 2 0
1.2792507 0.6968298 0.6968298 2 2 0
1.2791572 0.6969951 0.6969951 2 2 0
1.2790637 0.6971603 0.6971603 2 2 0
1.2789702 0.6973254 0.6973254 2 2 0
1.2788767 0.6974993 0.6974993 2 2 0
1.2787832 0.6976726 0.6976726 2 2 0
1.2786896 0.6978443 0.6978443 2 2 0
1.2785961 0.6980147 0.6980147 2 2 0
1.2785026 0.6981837 0.6981837 2 2 0
1.2784091 0.6983514 0.6983514 2 2 0
1.2783156 0.698522 0.698522 2 2 0
1.278222 0.6986903 0.6986903 2 2 0
1.2781285 0.6988561 0.6988561 2 2 0
1.278035 0.6990197 0.6990197 2 2 0
1.2779415 0.699181 0.699181 2 2 0
1.277848 0.6993138 0.6993138 2 2 0
1.2777544 0.6994887 0.6994887 2 2 0
1.2776609 0.6996671 0.6996671 2 2 0
1.2775674 0.6998454 0.6998454 2 2 0
1.2774739 0.7000209 0.7000209 2 2 0
1.2773804 0.7001774 0.7001774 2 2 0
1.2772869 0.7003326 0.7003326 2 2 0
1.2771933 0.7004867 0.7004867 2 2 0
1.2770998 0.7006397 0.7006397 2 2 0
1.2770063 0.7007916 0.7007916 2 2 0
1.2769128 0.7009424 0.7009424 2 2 0
1.2768193 0.7010921 0.7010921 2 2 0
1.2767257 0.7012406 0.7012406 2 2 0
1.2766322 0.7013881 0.7013881 2 2 0
1.2765387 0.7015379 0.7015379 2 2 0
1.2764452 0.701689 0.701689 2 2 0
1.2763517 0.70184 0.70184 2 2 0
1.2762581 0.7019909 0.7019909 2 2 0
1.2761646 0.7021417 0.7021417 2 2 0
1.2760711 0.7022924 0.7022924 2 2 0
1.2759776 0.7024429 0.7024429 2 2 0
1.2758841 0.7025933 0.7025933 2 2 0
1.2757906 0.7027436 0.7027436 2 2 0
1.275697 0.7028937 0.7028937 2 2 0
1.2756035 0.7030437 0.7030437 2 2 0
1.27551 0.7031936 0.7031936 2 2 0
1.2754165 0.7033434 0.7033434 2 2 0
1.275323 0.703493 0.703493 2 2 0
1.2752294 0.7036425 0.7036425 2 2 0
1.2751359 0.7037919 0.7037919 2 2 0
1.2750424 0.7039426 0.7039426 2 2 0
1.2749489 0.7041116 0.7041116 2 2 0
1.2748554 0.7042794 0.7042794 2 2 0
1.2747618 0.7044459 0.7044459 2 2 0
1.2746683 0.7046175 0.7046175 2 2 0
1.2745748 0.704795 0.704795 2 2 0
1.2744813 0.7049704 0.7049704 2 2 0
1.2743878 0.7051237 0.7051237 2 2 0
1.2742943 0.7052569 0.7052569 2 2 0
1.2742007 0.7053883 0.7053883 2 2 0
1.2741072 0.7055288 0.7055288 2 2 0
1.2740137 0.7056724 0.7056724 2 2 0
1.2739202 0.705815 0.705815 2 2 0
1.2738267 0.7059564 0.7059564 2 2 0
1.2737331 0.7061158 0.7061158 2 2 0
1.2736396 0.7062765 0.7062765 2 2 0
1.2735461 0.706437 0.706437 2 2 0
1.2734526 0.7065975 0.7065975 2 2 0
1.2733591 0.7067578 0.7067578 2 2 0
1.2732655 0.706918 0.706918 2 2 0
1.273172 0.707078 0.707078 2 2 0
1.2730785 0.707238 0.707238 2 2 0
1.272985 0.7073978 0.7073978 2 2 0
1.2728915 0.7075576 0.7075576 2 2 0
1.272798 0.7077171 0.7077171 2 2 0
1.2727044 0.7078766 0.7078766 2 2 0
1.2726109 0.708036 0.708036 2 2 0
1.2725174 0.7081952 0.7081952 2 2 0
1.2724239 0.7083543 0.7083543 2 2 0
1.2723304 0.7085132 0.7085132 2 2 0
1.2722368 0.7086755 0.7086755 2 2 0
1.2721433 0.7088378 0.7088378 2 2 0
1.2720498 0.7089989 0.7089989 2 2 0
1.2719563 0.7091587 0.7091587 2 2 0
1.2718628 0.7093173 0.7093173 2 2 0
1.2717692 0.7094747 0.7094747 2 2 0
1.2716757 0.7096308 0.7096308 2 2 0
1.2715822 0.7097858 0.7097858 2 2 0
1.2714887 0.7099397 0.7099397 2 2 0
1.2713952 0.710082 0.710082 2 2 0
1.2713017 0.7102176 0.7102176 2 2 0
1.2712081 0.7103529 0.7103529 2 2 0
1.2711146 0.7104881 0.7104881 2 2 0
1.2710211 0.7106467 0.7106467 2 2 0
1.2709276 0.7108058 0.7108058 2 2 0
1.2708341 0.7109546 0.7109546 2 2 0
1.2707405 0.7111017 0.7111017 2 2 0
1.270647 0.711247 0.711247 2 2 0
1.2705535 0.7113906 0.7113906 2 2 0
1.27046 0.7115336 0.7115336 2 2 0
1.2703665 0.711678 0.711678 2 2 0
1.2702729 0.7118214 0.7118214 2 2 0
1.2701794 0.7119639 0.7119639 2 2 0
1.2700859 0.7121053 0.7121053 2 2 0
1.2699924 0.7122457 0.7122457 2 2 0
1.2698989 0.7123852 0.7123852 2 2 0
1.2698054 0.7125237 0.7125237 2 2 0
1.2697118 0.7126642 0.7126642 2 2 0
1.2696183 0.7128093 0.7128093 2 2 0
1.2695248 0.7129542 0.7129542 2 2 0
1.2694313 0.713099 0.713099 2 2 0
1.2693378 0.7132436 0.7132436 2 2 0
1.2692442 0.7133881 0.7133881 2 2 0
1.2691507 0.7135324 0.7135324 2 2 0
1.2690572 0.7136766 0.7136766 2 2 0
1.2689637 0.7138207 0.7138207 2 2 0
1.2688702 0.7139646 0.7139646 2 2 0
1.2687766 0.7141084 0.7141084 2 2 0
1.2686831 0.714252 0.714252 2 2 0
1.2685896 0.7143955 0.7143955 2 2 0
1.2684961 0.7145388 0.7145388 2 2 0
1.2684026 0.714682 0.714682 2 2 0
1.2683091 0.7148408 0.7148408 2 2 0
1.2682155 0.7149986 0.7149986 2 2 0
1.268122 0.7151552 0.7151552 2 2 0
1.2680285 0.7153107 0.7153107 2 2 0
1.267935 0.7154662 0.7154662 2 2 0
1.2678415 0.7156298 0.7156298 2 2 0
1.2677479 0.7157916 0.7157916 2 2 0
1.2676544 0.7159514 0.7159514 2 2 0
1.2675609 0.7160926 0.7160926 2 2 0
1.2674674 0.7162154 0.7162154 2 2 0
1.2673739 0.7163395 0.7163395 2 2 0
1.2672803 0.7164751 0.7164751 2 2 0
1.2671868 0.7166098 0.7166098 2 2 0
1.2670933 0.7167435 0.7167435 2 2 0
1.2669998 0.7168919 0.7168919 2 2 0
1.2669063 0.7170452 0.7170452 2 2 0
1.2668128 0.7171983 0.7171983 2 2 0
1.2667192 0.7173513 0.7173513 2 2 0
1.2666257 0.7175042 0.7175042 2 2 0
1.2665322 0.717657 0.717657 2 2 0
1.2664387 0.7178096 0.7178096 2 2 0
1.2663452 0.7179621 0.7179621 2 2 0
1.2662516 0.7181144 0.7181144 2 2 0
1.2661581 0.7182667 0.7182667 2 2 0
1.2660646 0.7184187 0.7184187 2 2 0
1.2659711 0.7185706 0.7185706 2 2 0
1.2658776 0.7187224 0.7187224 2 2 0
1.265784 0.718874 0.718874 2 2 0
1.2656905 0.7190279 0.7190279 2 2 0
1.265597 0.7191814 0.7191814 2 2 0
1.2655035 0.7193338 0.7193338 2 2 0
1.26541 0.7194852 0.7194852 2 2 0
1.2653165 0.7196354 0.7196354 2 2 0
1.2652229 0.7197846 0.7197846 2 2 0
1.2651294 0.7199326 0.7199326 2 2 0
1.2650359 0.7200707 0.7200707 2 2 0
1.2649424 0.7202008 0.7202008 2 2 0
1.2648489 0.7203308 0.7203308 2 2 0
1.2647553 0.7204606 0.7204606 2 2 0
1.2646618 0.7205902 0.7205902 2 2 0
1.2645683 0.7207197 0.7207197 2 2 0
1.2644748 0.7208491 0.7208491 2 2 0
1.2643813 0.7209935 0.7209935 2 2 0
1.2642877 0.7211566 0.7211566 2 2 0
1.2641942 0.7213022 0.7213022 2 2 0
1.2641007 0.7214413 0.7214413 2 2 0
1.2640072 0.7215788 0.7215788 2 2 0
1.2639137 0.7217149 0.7217149 2 2 0
1.2638202 0.7218494 0.7218494 2 2 0
1.2637266 0.7219848 0.7219848 2 2 0
1.2636331 0.7221211 0.7221211 2 2 0
1.2635396 0.7222566 0.7222566 2 2 0
1.2634461 0.7223912 0.7223912 2 2 0
1.2633526 0.7225249 0.7225249 2 2 0
1.263259 0.7226578 0.7226578 2 2 0
1.2631655 0.7227898 0.7227898 2 2 0
1.263072 0.7229209 0.7229209 2 2 0
1.2629785 0.7230519 0.7230519 2 2 0
1.262885 0.7231899 0.7231899 2 2 0
1.2627914 0.7233277 0.7233277 2 2 0
1.2626979 0.7234654 0.7234654 2 2 0
1.2626044 0.7236029 0.7236029 2 2 0
1.2625109 0.7237402 0.7237402 2 2 0
1.2624174 0.7238774 0.7238774 2 2 0
1.2623239 0.7240145 0.7240145 2 2 0
1.2622303 0.7241514 0.7241514 2 2 0
1.2621368 0.7242881 0.7242881 2 2 0
1.2620433 0.7244247 0.7244247 2 2 0
1.2619498 0.7245611 0.7245611 2 2 0
1.2618563 0.7246974 0.7246974 2 2 0
1.2617627 0.7248476 0.7248476 2 2 0
1.2616692 0.7249969 0.7249969 2 2 0
1.2615757 0.7251453 0.7251453 2 2 0
1.2614822 0.7252928 0.7252928 2 2 0
1.2613887 0.7254392 0.7254392 2 2 0
1.2612951 0.7255886 0.7255886 2 2 0
1.2612016 0.7257419 0.7257419 2 2 0
1.2611081 0.7258936 0.7258936 2 2 0
1.2610146 0.7260437 0.7260437 2 2 0
1.2609211 0.7261723 0.7261723 2 2 0
1.2608275 0.7262898 0.7262898 2 2 0
1.260734 0.7264105 0.7264105 2 2 0
1.2606405 0.7265396 0.7265396 2 2 0
1.260547 0.7266679 0.7266679 2 2 0
1.2604535 0.7267953 0.7267953 2 2 0
1.26036 0.7269319 0.7269319 2 2 0
1.2602664 0.727077 0.727077 2 2 0
1.2601729 0.7272219 0.7272219 2 2 0
1.2600794 0.7273668 0.7273668 2 2 0
1.2599859 0.7275114 0.7275114 2 2 0
1.2598924 0.7276559 0.7276559 2 2 0
1.2597988 0.7278003 0.7278003 2 2 0
1.2597053 0.7279445 0.7279445 2 2 0
1.2596118 0.7280886 0.7280886 2 2 0
1.2595183 0.7282324 0.7282324 2 2 0
1.2594248 0.7283762 0.7283762 2 2 0
1.2593312 0.7285198 0.7285198 2 2 0
1.2592377 0.7286663 0.7286663 2 2 0
1.2591442 0.7288126 0.7288126 2 2 0
1.2590507 0.7289579 0.7289579 2 2 0
1.2589572 0.7291022 0.7291022 2 2 0
1.2588637 0.7292456 0.7292456 2 2 0
1.2587701 0.7293879 0.7293879 2 2 0
1.2586766 0.7295294 0.7295294 2 2 0
1.2585831 0.7296699 0.7296699 2 2 0
1.2584896 0.7298095 0.7298095 2 2 0
1.2583961 0.7299481 0.7299481 2 2 0
1.2583025 0.730077 0.730077 2 2 0
1.258209 0.7302003 0.7302003 2 2 0
1.2581155 0.7303234 0.7303234 2 2 0
1.258022 0.7304464 0.7304464 2 2 0
1.2579285 0.7305692 0.7305692 2 2 0
1.2578349 0.7307022 0.7307022 2 2 0
1.2577414 0.7308556 0.7308556 2 2 0
1.2576479 0.7309904 0.7309904 2 2 0
1.2575544 0.7311238 0.7311238 2 2 0
1.2574609 0.7312559 0.7312559 2 2 0
1.2573674 0.7313867 0.7313867 2 2 0
1.2572738 0.7315162 0.7315162 2 2 0
1.2571803 0.7316456 0.7316456 2 2 0
1.2570868 0.731776 0.731776 2 2 0
1.2569933 0.7319057 0.7319057 2 2 0
1.2568998 0.7320345 0.7320345 2 2 0
1.2568062 0.7321625 0.7321625 2 2 0
1.2567127 0.7322898 0.7322898 2 2 0
1.2566192 0.7324163 0.7324163 2 2 0
1.2565257 0.732542 0.732542 2 2 0
1.2564322 0.7326669 0.7326669 2 2 0
1.2563386 0.7327911 0.7327911 2 2 0
1.2562451 0.7329187 0.7329187 2 2 0
1.2561516 0.7330488 0.7330488 2 2 0
1.2560581 0.7331788 0.7331788 2 2 0
1.2559646 0.7333087 0.7333087 2 2 0
1.2558711 0.7334383 0.7334383 2 2 0
1.2557775 0.7335678 0.7335678 2 2 0
1.255684 0.7336972 0.7336972 2 2 0
1.2555905 0.7338264 0.7338264 2 2 0
1.255497 0.7339554 0.7339554 2 2 0
1.2554035 0.7340842 0.7340842 2 2 0
1.2553099 0.7342251 0.7342251 2 2 0
1.2552164 0.7343674 0.7343674 2 2 0
1.2551229 0.7345088 0.7345088 2 2 0
1.2550294 0.7346493 0.7346493 2 2 0
1.2549359 0.7347889 0.7347889 2 2 0
1.2548423 0.7349309 0.7349309 2 2 0
1.2547488 0.735078 0.735078 2 2 0
1.2546553 0.7352236 0.7352236 2 2 0
1.2545618 0.7353678 0.7353678 2 2 0
1.2544683 0.735486 0.735486 2 2 0
1.2543748 0.7356015 0.7356015 2 2 0
1.2542812 0.7357168 0.7357168 2 2 0
1.2541877 0.7358413 0.7358413 2 2 0
1.2540942 0.735965 0.735965 2 2 0
1.2540007 0.7360879 0.7360879 2 2 0
1.2539072 0.7362101 0.7362101 2 2 0
1.2538136 0.7363325 0.7363325 2 2 0
1.2537201 0.736469 0.736469 2 2 0
1.2536266 0.7366054 0.7366054 2 2 0
1.2535331 0.7367415 0.7367415 2 2 0
1.2534396 0.7368776 0.7368776 2 2 0
1.253346 0.7370134 0.7370134 2 2 0
1.2532525 0.7371491 0.7371491 2 2 0
1.253159 0.7372846 0.7372846 2 2 0
1.2530655 0.73742 0.73742 2 2 0
1.252972 0.7375552 0.7375552 2 2 0
1.2528785 0.7376943 0.7376943 2 2 0
1.2527849 0.7378344 0.7378344 2 2 0
1.2526914 0.7379736 0.7379736 2 2 0
1.2525979 0.738112 0.738112 2 2 0
1.2525044 0.7382495 0.7382495 2 2 0
1.2524109 0.7383862 0.7383862 2 2 0
1.2523173 0.7385219 0.7385219 2 2 0
1.2522238 0.7386569 0.7386569 2 2 0
1.2521303 0.738791 0.738791 2 2 0
1.2520368 0.7389242 0.7389242 2 2 0
1.2519433 0.7390576 0.7390576 2 2 0
1.2518497 0.7391906 0.7391906 2 2 0
1.2517562 0.7393222 0.7393222 2 2 0
1.2516627 0.7394526 0.7394526 2 2 0
1.2515692 0.7395816 0.7395816 2 2 0
1.2514757 0.7397094 0.7397094 2 2 0
1.2513822 0.7398308 0.7398308 2 2 0
1.2512886 0.7399738 0.7399738 2 2 0
1.2511951 0.7401065 0.7401065 2 2 0
1.2511016 0.7402359 0.7402359 2 2 0
1.2510081 0.7403641 0.7403641 2 2 0
1.2509146 0.7404912 0.7404912 2 2 0
1.250821 0.740617 0.740617 2 2 0
1.2507275 0.7407429 0.7407429 2 2 0
1.250634 0.7408681 0.7408681 2 2 0
1.2505405 0.7409926 0.7409926 2 2 0
1.250447 0.7411164 0.7411164 2 2 0
1.2503534 0.7412395 0.7412395 2 2 0
1.2502599 0.7413619 0.7413619 2 2 0
1.2501664 0.7414835 0.7414835 2 2 0
1.2500729 0.7416045 0.7416045 2 2 0
1.2499794 0.7417248 0.7417248 2 2 0
1.2498859 0.7418444 0.7418444 2 2 0
1.2497923 0.7419633 0.7419633 2 2 0
1.2496988 0.7420815 0.7420815 2 2 0
1.2496053 0.7422023 0.7422023 2 2 0
1.2495118 0.7423244 0.7423244 2 2 0
1.2494183 0.7424463 0.7424463 2 2 0
1.2493247 0.742568 0.742568 2 2 0
1.2492312 0.7426895 0.7426895 2 2 0
1.2491377 0.7428109 0.7428109 2 2 0
1.2490442 0.7429321 0.7429321 2 2 0
1.2489507 0.7430592 0.7430592 2 2 0
1.2488571 0.7431953 0.7431953 2 2 0
1.2487636 0.7433305 0.7433305 2 2 0
1.2486701 0.743465 0.743465 2 2 0
1.2485766 0.7435987 0.7435987 2 2 0
1.2484831 0.7437403 0.7437403 2 2 0
1.2483896 0.7438824 0.7438824 2 2 0
1.248296 0.7440177 0.7440177 2 2 0
1.2482025 0.7441345 0.7441345 2 2 0
1.248109 0.7442501 0.7442501 2 2 0
1.2480155 0.7443646 0.7443646 2 2 0
1.247922 0.7444815 0.7444815 2 2 0
1.2478284 0.7446019 0.7446019 2 2 0
1.2477349 0.7447216 0.7447216 2 2 0
1.2476414 0.7448406 0.7448406 2 2 0
1.2475479 0.7449589 0.7449589 2 2 0
1.2474544 0.7450765 0.7450765 2 2 0
1.2473608 0.7451934 0.7451934 2 2 0
1.2472673 0.7453115 0.7453115 2 2 0
1.2471738 0.7454391 0.7454391 2 2 0
1.2470803 0.7455665 0.7455665 2 2 0
1.2469868 0.7456937 0.7456937 2 2 0
1.2468933 0.7458208 0.7458208 2 2 0
1.2467997 0.7459477 0.7459477 2 2 0
1.2467062 0.7460744 0.7460744 2 2 0
1.2466127 0.7462029 0.7462029 2 2 0
1.2465192 0.7463376 0.7463376 2 2 0
1.2464257 0.7464715 0.7464715 2 2 0
1.2463321 0.7466046 0.7466046 2 2 0
1.2462386 0.7467369 0.7467369 2 2 0
1.2461451 0.7468685 0.7468685 2 2 0
1.2460516 0.7469993 0.7469993 2 2 0
1.2459581 0.7471293 0.7471293 2 2 0
1.2458645 0.7472586 0.7472586 2 2 0
1.245771 0.7473871 0.7473871 2 2 0
1.2456775 0.7475184 0.7475184 2 2 0
1.245584 0.7476492 0.7476492 2 2 0
1.2454905 0.7477787 0.7477787 2 2 0
1.245397 0.7479071 0.7479071 2 2 0
1.2453034 0.7480343 0.7480343 2 2 0
1.2452099 0.7481456 0.7481456 2 2 0
1.2451164 0.7482533 0.7482533 2 2 0
1.2450229 0.7483686 0.7483686 2 2 0
1.2449294 0.7484844 0.7484844 2 2 0
1.2448358 0.7486176 0.7486176 2 2 0
1.2447423 0.7487506 0.7487506 2 2 0
1.2446488 0.7488835 0.7488835 2 2 0
1.2445553 0.7490162 0.7490162 2 2 0
1.2444618 0.7491487 0.7491487 2 2 0
1.2443682 0.7492811 0.7492811 2 2 0
1.2442747 0.7494139 0.7494139 2 2 0
1.2441812 0.7495468 0.7495468 2 2 0
1.2440877 0.7496789 0.7496789 2 2 0
1.2439942 0.7498103 0.7498103 2 2 0
1.2439007 0.7499409 0.7499409 2 2 0
1.2438071 0.7500639 0.7500639 2 2 0
1.2437136 0.7501806 0.7501806 2 2 0
1.2436201 0.7502967 0.7502967 2 2 0
1.2435266 0.7504121 0.7504121 2 2 0
1.2434331 0.7505269 0.7505269 2 2 0
1.2433395 0.7506411 0.7506411 2 2 0
1.243246 0.7507547 0.7507547 2 2 0
1.2431525 0.7508676 0.7508676 2 2 0
1.243059 0.7509803 0.7509803 2 2 0
1.2429655 0.7510942 0.7510942 2 2 0
1.2428719 0.7512079 0.7512079 2 2 0
1.2427784 0.7513215 0.7513215 2 2 0
1.2426849 0.7514349 0.7514349 2 2 0
1.2425914 0.751555 0.751555 2 2 0
1.2424979 0.7516848 0.7516848 2 2 0
1.2424043 0.7518139 0.7518139 2 2 0
1.2423108 0.7519523 0.7519523 2 2 0
1.2422173 0.7520816 0.7520816 2 2 0
1.2421238 0.7521996 0.7521996 2 2 0
1.2420303 0.7523166 0.7523166 2 2 0
1.2419368 0.7524326 0.7524326 2 2 0
1.2418432 0.7525475 0.7525475 2 2 0
1.2417497 0.7526629 0.7526629 2 2 0
1.2416562 0.7527802 0.7527802 2 2 0
1.2415627 0.7528969 0.7528969 2 2 0
1.2414692 0.7530129 0.7530129 2 2 0
1.2413756 0.7531283 0.7531283 2 2 0
1.2412821 0.7532431 0.7532431 2 2 0
1.2411886 0.7533573 0.7533573 2 2 0
1.2410951 0.7534708 0.7534708 2 2 0
1.2410016 0.7535836 0.7535836 2 2 0
1.240908 0.7536959 0.7536959 2 2 0
1.2408145 0.7538075 0.7538075 2 2 0
1.240721 0.7539232 0.7539232 2 2 0
1.2406275 0.7540418 0.7540418 2 2 0
1.240534 0.7541601 0.7541601 2 2 0
1.2404405 0.7542783 0.7542783 2 2 0
1.2403469 0.7543984 0.7543984 2 2 0
1.2402534 0.7545275 0.7545275 2 2 0
1.2401599 0.7546558 0.7546558 2 2 0
1.2400664 0.7547835 0.7547835 2 2 0
1.2399729 0.7549105 0.7549105 2 2 0
1.2398793 0.7550367 0.7550367 2 2 0
1.2397858 0.7551623 0.7551623 2 2 0
1.2396923 0.7552872 0.7552872 2 2 0
1.2395988 0.7554159 0.7554159 2 2 0
1.2395053 0.7555459 0.7555459 2 2 0
1.2394117 0.7556748 0.7556748 2 2 0
1.2393182 0.7558027 0.7558027 2 2 0
1.2392247 0.7559127 0.7559127 2 2 0
1.2391312 0.756018 0.756018 2 2 0
1.2390377 0.7561236 0.7561236 2 2 0
1.2389442 0.7562368 0.7562368 2 2 0
1.2388506 0.7563493 0.7563493 2 2 0
1.2387571 0.7564612 0.7564612 2 2 0
1.2386636 0.7565725 0.7565725 2 2 0
1.2385701 0.7566831 0.7566831 2 2 0
1.2384766 0.7567991 0.7567991 2 2 0
1.238383 0.7569226 0.7569226 2 2 0
1.2382895 0.7570458 0.7570458 2 2 0
1.238196 0.7571689 0.7571689 2 2 0
1.2381025 0.7572939 0.7572939 2 2 0
1.238009 0.7574219 0.7574219 2 2 0
1.2379154 0.7575492 0.7575492 2 2 0
1.2378219 0.7576758 0.7576758 2 2 0
1.2377284 0.7578018 0.7578018 2 2 0
1.2376349 0.757927 0.757927 2 2 0
1.2375414 0.7580515 0.7580515 2 2 0
1.2374479 0.7581753 0.7581753 2 2 0
1.2373543 0.7582984 0.7582984 2 2 0
1.2372608 0.7584208 0.7584208 2 2 0
1.2371673 0.7585426 0.7585426 2 2 0
1.2370738 0.7586637 0.7586637 2 2 0
1.2369803 0.7587841 0.7587841 2 2 0
1.2368867 0.7589053 0.7589053 2 2 0
1.2367932 0.7590256 0.7590256 2 2 0
1.2366997 0.7591449 0.7591449 2 2 0
1.2366062 0.7592632 0.7592632 2 2 0
1.2365127 0.7593805 0.7593805 2 2 0
1.2364191 0.7594968 0.7594968 2 2 0
1.2363256 0.7596041 0.7596041 2 2 0
1.2362321 0.7597266 0.7597266 2 2 0
1.2361386 0.759855 0.759855 2 2 0
1.2360451 0.7599832 0.7599832 2 2 0
1.2359516 0.7601018 0.7601018 2 2 0
1.235858 0.760218 0.760218 2 2 0
1.2357645 0.7603334 0.7603334 2 2 0
1.235671 0.7604482 0.7604482 2 2 0
1.2355775 0.7605626 0.7605626 2 2 0
1.235484 0.7606764 0.7606764 2 2 0
1.2353904 0.7607896 0.7607896 2 2 0
1.2352969 0.7609022 0.7609022 2 2 0
1.2352034 0.7610143 0.7610143 2 2 0
1.2351099 0.7611257 0.7611257 2 2 0
1.2350164 0.7612366 0.7612366 2 2 0
1.2349228 0.7613469 0.7613469 2 2 0
1.2348293 0.7614566 0.7614566 2 2 0
1.2347358 0.7615657 0.7615657 2 2 0
1.2346423 0.7616743 0.7616743 2 2 0
1.2345488 0.7617823 0.7617823 2 2 0
1.2344553 0.7618897 0.7618897 2 2 0
1.2343617 0.7619966 0.7619966 2 2 0
1.2342682 0.7621035 0.7621035 2 2 0
1.2341747 0.7622132 0.7622132 2 2 0
1.2340812 0.762328 0.762328 2 2 0
1.2339877 0.7624513 0.7624513 2 2 0
1.2338941 0.7625739 0.7625739 2 2 0
1.2338006 0.7626959 0.7626959 2 2 0
1.2337071 0.7628173 0.7628173 2 2 0
1.2336136 0.762947 0.762947 2 2 0
1.2335201 0.7630762 0.7630762 2 2 0
1.2334265 0.7631889 0.7631889 2 2 0
1.233333 0.7632983 0.7632983 2 2 0
1.2332395 0.7634067 0.7634067 2 2 0
1.233146 0.7635143 0.7635143 2 2 0
1.2330525 0.7636225 0.7636225 2 2 0
1.232959 0.7637335 0.7637335 2 2 0
1.2328654 0.7638439 0.7638439 2 2 0
1.2327719 0.7639538 0.7639538 2 2 0
1.2326784 0.7640631 0.7640631 2 2 0
1.2325849 0.7641718 0.7641718 2 2 0
1.2324914 0.7642799 0.7642799 2 2 0
1.2323978 0.7643875 0.7643875 2 2 0
1.2323043 0.7644945 0.7644945 2 2 0
1.2322108 0.7646009 0.7646009 2 2 0
1.2321173 0.7647068 0.7647068 2 2 0
1.2320238 0.7648198 0.7648198 2 2 0
1.2319302 0.7649378 0.7649378 2 2 0
1.2318367 0.7650607 0.7650607 2 2 0
1.2317432 0.7651829 0.7651829 2 2 0
1.2316497 0.7653044 0.7653044 2 2 0
1.2315562 0.7654253 0.7654253 2 2 0
1.2314627 0.7655456 0.7655456 2 2 0
1.2313691 0.7656653 0.7656653 2 2 0
1.2312756 0.7657843 0.7657843 2 2 0
1.2311821 0.7659027 0.7659027 2 2 0
1.2310886 0.7660205 0.7660205 2 2 0
1.2309951 0.7661426 0.7661426 2 2 0
1.2309015 0.7662639 0.7662639 2 2 0
1.230808 0.7663843 0.7663843 2 2 0
1.2307145 0.7665038 0.7665038 2 2 0
1.230621 0.7666124 0.7666124 2 2 0
1.2305275 0.7667119 0.7667119 2 2 0
1.2304339 0.7668133 0.7668133 2 2 0
1.2303404 0.7669207 0.7669207 2 2 0
1.2302469 0.7670276 0.7670276 2 2 0
1.2301534 0.7671339 0.7671339 2 2 0
1.2300599 0.7672397 0.7672397 2 2 0
1.2299664 0.7673452 0.7673452 2 2 0
1.2298728 0.7674635 0.7674635 2 2 0
1.2297793 0.7675858 0.7675858 2 2 0
1.2296858 0.7677079 0.7677079 2 2 0
1.2295923 0.7678294 0.7678294 2 2 0
1.2294988 0.7679502 0.7679502 2 2 0
1.2294052 0.7680704 0.7680704 2 2 0
1.2293117 0.7681899 0.7681899 2 2 0
1.2292182 0.7683089 0.7683089 2 2 0
1.2291247 0.7684272 0.7684272 2 2 0
1.2290312 0.7685448 0.7685448 2 2 0
1.2289376 0.7686619 0.7686619 2 2 0
1.2288441 0.7687783 0.7687783 2 2 0
1.2287506 0.7688941 0.7688941 2 2 0
1.2286571 0.7690093 0.7690093 2 2 0
1.2285636 0.7691238 0.7691238 2 2 0
1.2284701 0.7692382 0.7692382 2 2 0
1.2283765 0.7693524 0.7693524 2 2 0
1.228283 0.7694656 0.7694656 2 2 0
1.2281895 0.769578 0.769578 2 2 0
1.228096 0.7696894 0.7696894 2 2 0
1.2280025 0.7698 0.7698 2 2 0
1.2279089 0.7699097 0.7699097 2 2 0
1.2278154 0.7700236 0.7700236 2 2 0
1.2277219 0.7701369 0.7701369 2 2 0
1.2276284 0.7702494 0.7702494 2 2 0
1.2275349 0.7703611 0.7703611 2 2 0
1.2274413 0.7704719 0.7704719 2 2 0
1.2273478 0.7705819 0.7705819 2 2 0
1.2272543 0.7706911 0.7706911 2 2 0
1.2271608 0.7708004 0.7708004 2 2 0
1.2270673 0.7709092 0.7709092 2 2 0
1.2269738 0.7710175 0.7710175 2 2 0
1.2268802 0.7711252 0.7711252 2 2 0
1.2267867 0.7712324 0.7712324 2 2 0
1.2266932 0.7713391 0.7713391 2 2 0
1.2265997 0.7714452 0.7714452 2 2 0
1.2265062 0.7715508 0.7715508 2 2 0
1.2264126 0.7716559 0.7716559 2 2 0
1.2263191 0.7717604 0.7717604 2 2 0
1.2262256 0.7718644 0.7718644 2 2 0
1.2261321 0.7719679 0.7719679 2 2 0
1.2260386 0.7720709 0.7720709 2 2 0
1.225945 0.7721734 0.7721734 2 2 0
1.2258515 0.7722753 0.7722753 2 2 0
1.225758 0.7723828 0.7723828 2 2 0
1.2256645 0.7724972 0.7724972 2 2 0
1.225571 0.7726141 0.7726141 2 2 0
1.2254775 0.7727303 0.7727303 2 2 0
1.2253839 0.772846 0.772846 2 2 0
1.2252904 0.7729645 0.7729645 2 2 0
1.2251969 0.7730872 0.7730872 2 2 0
1.2251034 0.7732055 0.7732055 2 2 0
1.2250099 0.7733106 0.7733106 2 2 0
1.2249163 0.7734148 0.7734148 2 2 0
1.2248228 0.7735183 0.7735183 2 2 0
1.2247293 0.773621 0.773621 2 2 0
1.2246358 0.7737259 0.7737259 2 2 0
1.2245423 0.7738318 0.7738318 2 2 0
1.2244487 0.7739373 0.7739373 2 2 0
1.2243552 0.7740422 0.7740422 2 2 0
1.2242617 0.7741465 0.7741465 2 2 0
1.2241682 0.7742504 0.7742504 2 2 0
1.2240747 0.7743537 0.7743537 2 2 0
1.2239811 0.7744565 0.7744565 2 2 0
1.2238876 0.7745587 0.7745587 2 2 0
1.2237941 0.7746605 0.7746605 2 2 0
1.2237006 0.7747684 0.7747684 2 2 0
1.2236071 0.7748794 0.7748794 2 2 0
1.2235136 0.774996 0.774996 2 2 0
1.22342 0.7751121 0.7751121 2 2 0
1.2233265 0.7752275 0.7752275 2 2 0
1.223233 0.7753424 0.7753424 2 2 0
1.2231395 0.7754567 0.7754567 2 2 0
1.223046 0.7755704 0.7755704 2 2 0
1.2229524 0.7756836 0.7756836 2 2 0
1.2228589 0.7757962 0.7757962 2 2 0
1.2227654 0.7759108 0.7759108 2 2 0
1.2226719 0.776027 0.776027 2 2 0
1.2225784 0.7761422 0.7761422 2 2 0
1.2224848 0.7762567 0.7762567 2 2 0
1.2223913 0.7763672 0.7763672 2 2 0
1.2222978 0.776464 0.776464 2 2 0
1.2222043 0.77656 0.77656 2 2 0
1.2221108 0.7766613 0.7766613 2 2 0
1.2220173 0.7767643 0.7767643 2 2 0
1.2219237 0.7768667 0.7768667 2 2 0
1.2218302 0.7769686 0.7769686 2 2 0
1.2217367 0.7770719 0.7770719 2 2 0
1.2216432 0.7771775 0.7771775 2 2 0
1.2215497 0.7772891 0.7772891 2 2 0
1.2214561 0.7774053 0.7774053 2 2 0
1.2213626 0.7775209 0.7775209 2 2 0
1.2212691 0.7776359 0.7776359 2 2 0
1.2211756 0.7777503 0.7777503 2 2 0
1.2210821 0.7778642 0.7778642 2 2 0
1.2209885 0.7779775 0.7779775 2 2 0
1.220895 0.7780902 0.7780902 2 2 0
1.2208015 0.7782024 0.7782024 2 2 0
1.220708 0.778314 0.778314 2 2 0
1.2206145 0.778425 0.778425 2 2 0
1.220521 0.7785355 0.7785355 2 2 0
1.2204274 0.7786454 0.7786454 2 2 0
1.2203339 0.7787549 0.7787549 2 2 0
1.2202404 0.778865 0.778865 2 2 0
1.2201469 0.7789744 0.7789744 2 2 0
1.2200534 0.7790829 0.7790829 2 2 0
1.2199598 0.7791906 0.7791906 2 2 0
1.2198663 0.7792975 0.7792975 2 2 0
1.2197728 0.7794036 0.7794036 2 2 0
1.2196793 0.7795026 0.7795026 2 2 0
1.2195858 0.7796083 0.7796083 2 2 0
1.2194922 0.7797245 0.7797245 2 2 0
1.2193987 0.77984 0.77984 2 2 0
1.2193052 0.779955 0.779955 2 2 0
1.2192117 0.7800646 0.7800646 2 2 0
1.2191182 0.7801703 0.7801703 2 2 0
1.2190247 0.7802754 0.7802754 2 2 0
1.2189311 0.7803801 0.7803801 2 2 0
1.2188376 0.7804843 0.7804843 2 2 0
1.2187441 0.7805881 0.7805881 2 2 0
1.2186506 0.7806913 0.7806913 2 2 0
1.2185571 0.7807941 0.7807941 2 2 0
1.2184635 0.7808963 0.7808963 2 2 0
1.21837 0.7809981 0.7809981 2 2 0
1.2182765 0.7810994 0.7810994 2 2 0
1.218183 0.7812002 0.7812002 2 2 0
1.2180895 0.7813005 0.7813005 2 2 0
1.2179959 0.7814003 0.7814003 2 2 0
1.2179024 0.7814997 0.7814997 2 2 0
1.2178089 0.7815985 0.7815985 2 2 0
1.2177154 0.7816969 0.7816969 2 2 0
1.2176219 0.7817987 0.7817987 2 2 0
1.2175284 0.7819069 0.7819069 2 2 0
1.2174348 0.7820154 0.7820154 2 2 0
1.2173413 0.7821243 0.7821243 2 2 0
1.2172478 0.782234 0.782234 2 2 0
1.2171543 0.7823519 0.7823519 2 2 0
1.2170608 0.782464 0.782464 2 2 0
1.2169672 0.7825665 0.7825665 2 2 0
1.2168737 0.7826682 0.7826682 2 2 0
1.2167802 0.7827692 0.7827692 2 2 0
1.2166867 0.7828695 0.7828695 2 2 0
1.2165932 0.7829698 0.7829698 2 2 0
1.2164996 0.7830721 0.7830721 2 2 0
1.2164061 0.7831739 0.7831739 2 2 0
1.2163126 0.7832752 0.7832752 2 2 0
1.2162191 0.7833761 0.7833761 2 2 0
1.2161256 0.7834765 0.7834765 2 2 0
1.2160321 0.7835763 0.7835763 2 2 0
1.2159385 0.7836757 0.7836757 2 2 0
1.215845 0.7837747 0.7837747 2 2 0
1.2157515 0.7838731 0.7838731 2 2 0
1.215658 0.783977 0.783977 2 2 0
1.2155645 0.7840823 0.7840823 2 2 0
1.2154709 0.7841879 0.7841879 2 2 0
1.2153774 0.7842939 0.7842939 2 2 0
1.2152839 0.7844002 0.7844002 2 2 0
1.2151904 0.78451 0.78451 2 2 0
1.2150969 0.7846194 0.7846194 2 2 0
1.2150033 0.7847283 0.7847283 2 2 0
1.2149098 0.7848366 0.7848366 2 2 0
1.2148163 0.7849459 0.7849459 2 2 0
1.2147228 0.7850584 0.7850584 2 2 0
1.2146293 0.7851702 0.7851702 2 2 0
1.2145358 0.7852812 0.7852812 2 2 0
1.2144422 0.7853837 0.7853837 2 2 0
1.2143487 0.7854791 0.7854791 2 2 0
1.2142552 0.7855738 0.7855738 2 2 0
1.2141617 0.7856702 0.7856702 2 2 0
1.2140682 0.7857699 0.7857699 2 2 0
1.2139746 0.7858692 0.7858692 2 2 0
1.2138811 0.785968 0.785968 2 2 0
1.2137876 0.7860688 0.7860688 2 2 0
1.2136941 0.7861708 0.7861708 2 2 0
1.2136006 0.7862733 0.7862733 2 2 0
1.213507 0.7863761 0.7863761 2 2 0
1.2134135 0.7864794 0.7864794 2 2 0
1.21332 0.7865862 0.7865862 2 2 0
1.2132265 0.786696 0.786696 2 2 0
1.213133 0.7868052 0.7868052 2 2 0
1.2130395 0.7869139 0.7869139 2 2 0
1.2129459 0.7870221 0.7870221 2 2 0
1.2128524 0.7871298 0.7871298 2 2 0
1.2127589 0.7872369 0.7872369 2 2 0
1.2126654 0.7873435 0.7873435 2 2 0
1.2125719 0.7874497 0.7874497 2 2 0
1.2124783 0.7875553 0.7875553 2 2 0
1.2123848 0.7876624 0.7876624 2 2 0
1.2122913 0.7877693 0.7877693 2 2 0
1.2121978 0.7878754 0.7878754 2 2 0
1.2121043 0.7879808 0.7879808 2 2 0
1.2120107 0.7880855 0.7880855 2 2 0
1.2119172 0.7881876 0.7881876 2 2 0
1.2118237 0.7882776 0.7882776 2 2 0
1.2117302 0.788376 0.788376 2 2 0
1.2116367 0.7884758 0.7884758 2 2 0
1.2115432 0.788576 0.788576 2 2 0
1.2114496 0.7886804 0.7886804 2 2 0
1.2113561 0.7887904 0.7887904 2 2 0
1.2112626 0.7888998 0.7888998 2 2 0
1.2111691 0.7890087 0.7890087 2 2 0
1.2110756 0.7891171 0.7891171 2 2 0
1.210982 0.789225 0.789225 2 2 0
