1.1932012 0.9065093 0.9065093 2 2 0
1.1931033 0.906547 0.906547 2 2 0
1.1930055 0.9065812 0.9065812 2 2 0
1.1929077 0.9066202 0.9066202 2 2 0
1.1928099 0.9066612 0.9066612 2 2 0
1.192712 0.9067023 0.9067023 2 2 0
1.1926142 0.9067436 0.9067436 2 2 0
1.1925164 0.9067849 0.9067849 2 2 0
1.1924185 0.9068264 0.9068264 2 2 0
1.1923207 0.9068681 0.9068681 2 2 0
1.1922229 0.9069098 0.9069098 2 2 0
1.192125 0.9069532 0.9069532 2 2 0
1.1920272 0.9069982 0.9069982 2 2 0
1.1919294 0.9070429 0.9070429 2 2 0
1.1918316 0.907087 0.907087 2 2 0
1.1917337 0.9071308 0.9071308 2 2 0
1.5754205 0.5 0.5 2 2 0
1.5754205 0.4898147 0.4898147 2 2 0
1.5753227 0.4887192 0.4887192 2 2 0
1.5752249 0.4873667 0.4873667 2 2 0
1.575127 0.4856545 0.4856545 2 2 0
1.5750292 0.4834175 0.4834175 2 2 0
1.5749314 0.4803706 0.4803706 2 2 0
1.5748335 0.479307 0.479307 2 2 0
1.5747357 0.4784812 0.4784812 2 2 0
1.5746379 0.4775911 0.4775911 2 2 0
1.5745401 0.476629 0.476629 2 2 0
1.5744422 0.4755857 0.4755857 2 2 0
1.5743444 0.4744506 0.4744506 2 2 0
1.5742466 0.473211 0.473211 2 2 0
1.5741487 0.4718519 0.4718519 2 2 0
1.5740509 0.4703552 0.4703552 2 2 0
1.5739531 0.469548 0.469548 2 2 0
1.5738553 0.4689482 0.4689482 2 2 0
1.5737574 0.4683275 0.4683275 2 2 0
1.5736596 0.4676847 0.4676847 2 2 0
1.5735618 0.4670186 0.4670186 2 2 0
1.5734639 0.466328 0.466328 2 2 0
1.5733661 0.4656115 0.4656115 2 2 0
1.5732683 0.4648678 0.4648678 2 2 0
1.5731705 0.4640952 0.4640952 2 2 0
1.5730726 0.463292 0.463292 2 2 0
1.5729748 0.4624564 0.4624564 2 2 0
1.572877 0.4615865 0.4615865 2 2 0
1.5727791 0.4606802 0.4606802 2 2 0
1.5726813 0.4598768 0.4598768 2 2 0
1.5725835 0.4594258 0.4594258 2 2 0
1.5724856 0.4589669 0.4589669 2 2 0
1.5723878 0.4585001 0.4585001 2 2 0
1.57229 0.4580251 0.4580251 2 2 0
1.5721922 0.4575417 0.4575417 2 2 0
1.5720943 0.4570497 0.4570497 2 2 0
1.5719965 0.4565489 0.4565489 2 2 0
1.5718987 0.4560391 0.4560391 2 2 0
1.5718008 0.4555201 0.4555201 2 2 0
1.571703 0.4549917 0.4549917 2 2 0
1.5716052 0.4544535 0.4544535 2 2 0
1.5715074 0.4539055 0.4539055 2 2 0
1.5714095 0.4533472 0.4533472 2 2 0
1.5713117 0.4527785 0.4527785 2 2 0
1.5712139 0.4521991 0.4521991 2 2 0
1.571116 0.4516088 0.4516088 2 2 0
1.5710182 0.4510071 0.4510071 2 2 0
1.5709204 0.4503939 0.4503939 2 2 0
1.5708225 0.4498742 0.4498742 2 2 0
1.5707247 0.4495302 0.4495302 2 2 0
1.5706269 0.4491834 0.4491834 2 2 0
1.5705291 0.448834 0.448834 2 2 0
1.5704312 0.4484818 0.4484818 2 2 0
1.5703334 0.4481269 0.4481269 2 2 0
1.5702356 0.4477692 0.4477692 2 2 0
1.5701377 0.4474087 0.4474087 2 2 0
1.5700399 0.4470455 0.4470455 2 2 0
1.5699421 0.4466795 0.4466795 2 2 0
1.5698443 0.4463107 0.4463107 2 2 0
1.5697464 0.4459391 0.4459391 2 2 0
1.5696486 0.4455647 0.4455647 2 2 0
1.5695508 0.4451874 0.4451874 2 2 0
1.5694529 0.4448074 0.4448074 2 2 0
1.5693551 0.4444244 0.4444244 2 2 0
1.5692573 0.4440386 0.4440386 2 2 0
1.5691594 0.44365 0.44365 2 2 0
1.5690616 0.4432585 0.4432585 2 2 0
1.5689638 0.4428641 0.4428641 2 2 0
1.568866 0.4424669 0.4424669 2 2 0
1.5687681 0.4420667 0.4420667 2 2 0
1.5686703 0.4416637 0.4416637 2 2 0
1.5685725 0.4410973 0.4410973 2 2 0
1.5684746 0.4406823 0.4406823 2 2 0
1.5683768 0.4400143 0.4400143 2 2 0
1.568279 0.4395993 0.4395993 2 2 0
1.5681812 0.4391861 0.4391861 2 2 0
1.5680833 0.438769 0.438769 2 2 0
1.5679855 0.438348 0.438348 2 2 0
1.5678877 0.4379229 0.4379229 2 2 0
1.5677898 0.4374939 0.4374939 2 2 0
1.567692 0.4370607 0.4370607 2 2 0
1.5675942 0.4366234 0.4366234 2 2 0
1.5674963 0.4361819 0.4361819 2 2 0
1.5673985 0.4357362 0.4357362 2 2 0
1.5673007 0.4352862 0.4352862 2 2 0
1.5672029 0.4348319 0.4348319 2 2 0
1.567105 0.4343733 0.4343733 2 2 0
1.5670072 0.4339102 0.4339102 2 2 0
1.5669094 0.4334426 0.4334426 2 2 0
1.5668115 0.4329705 0.4329705 2 2 0
1.5667137 0.4324939 0.4324939 2 2 0
1.5666159 0.4320126 0.4320126 2 2 0
1.5665181 0.4315267 0.4315267 2 2 0
1.5664202 0.431036 0.431036 2 2 0
1.5663224 0.4305406 0.4305406 2 2 0
1.5662246 0.4300403 0.4300403 2 2 0
1.5661267 0.4296986 0.4296986 2 2 0
1.5660289 0.4293696 0.4293696 2 2 0
1.5659311 0.429039 0.429039 2 2 0
1.5658332 0.4287069 0.4287069 2 2 0
1.5657354 0.4283732 0.4283732 2 2 0
1.5656376 0.428038 0.428038 2 2 0
1.5655398 0.4277013 0.4277013 2 2 0
1.5654419 0.4273631 0.4273631 2 2 0
1.5653441 0.4270233 0.4270233 2 2 0
1.5652463 0.426682 0.426682 2 2 0
1.5651484 0.4263392 0.4263392 2 2 0
1.5650506 0.4259949 0.4259949 2 2 0
1.5649528 0.4256491 0.4256491 2 2 0
1.564855 0.4253017 0.4253017 2 2 0
1.5647571 0.4249529 0.4249529 2 2 0
1.5646593 0.4246025 0.4246025 2 2 0
1.5645615 0.4242507 0.4242507 2 2 0
1.5644636 0.4238973 0.4238973 2 2 0
1.5643658 0.4235425 0.4235425 2 2 0
1.564268 0.4231861 0.4231861 2 2 0
1.5641701 0.4228283 0.4228283 2 2 0
1.5640723 0.4224691 0.4224691 2 2 0
1.5639745 0.4221083 0.4221083 2 2 0
1.5638767 0.4217461 0.4217461 2 2 0
1.5637788 0.4213824 0.4213824 2 2 0
1.563681 0.4210173 0.4210173 2 2 0
1.5635832 0.4206507 0.4206507 2 2 0
1.5634853 0.4202827 0.4202827 2 2 0
1.5633875 0.4199405 0.4199405 2 2 0
1.5632897 0.4196867 0.4196867 2 2 0
1.5631919 0.4194326 0.4194326 2 2 0
1.563094 0.4191783 0.4191783 2 2 0
1.5629962 0.4189238 0.4189238 2 2 0
1.5628984 0.4186692 0.4186692 2 2 0
1.5628005 0.4184143 0.4184143 2 2 0
1.5627027 0.4181593 0.4181593 2 2 0
1.5626049 0.4179041 0.4179041 2 2 0
1.562507 0.4176488 0.4176488 2 2 0
1.5624092 0.4173934 0.4173934 2 2 0
1.5623114 0.4171378 0.4171378 2 2 0
1.5622136 0.4168821 0.4168821 2 2 0
1.5621157 0.4166264 0.4166264 2 2 0
1.5620179 0.4163705 0.4163705 2 2 0
1.5619201 0.4161146 0.4161146 2 2 0
1.5618222 0.4158587 0.4158587 2 2 0
1.5617244 0.4156027 0.4156027 2 2 0
1.5616266 0.4153467 0.4153467 2 2 0
1.5615288 0.4150907 0.4150907 2 2 0
1.5614309 0.4148347 0.4148347 2 2 0
1.5613331 0.4145787 0.4145787 2 2 0
1.5612353 0.4143228 0.4143228 2 2 0
1.5611374 0.4140669 0.4140669 2 2 0
1.5610396 0.413811 0.413811 2 2 0
1.5609418 0.4135553 0.4135553 2 2 0
1.5608439 0.4132996 0.4132996 2 2 0
1.5607461 0.4130441 0.4130441 2 2 0
1.5606483 0.4127887 0.4127887 2 2 0
1.5605505 0.4125334 0.4125334 2 2 0
1.5604526 0.4122783 0.4122783 2 2 0
1.5603548 0.4120233 0.4120233 2 2 0
1.560257 0.4117686 0.4117686 2 2 0
1.5601591 0.411514 0.411514 2 2 0
1.5600613 0.4112597 0.4112597 2 2 0
1.5599635 0.4110057 0.4110057 2 2 0
1.5598657 0.4107162 0.4107162 2 2 0
1.5597678 0.4104364 0.4104364 2 2 0
1.55967 0.4101048 0.4101048 2 2 0
1.5595722 0.4097827 0.4097827 2 2 0
1.5594743 0.4094934 0.4094934 2 2 0
1.5593765 0.4092016 0.4092016 2 2 0
1.5592787 0.4089092 0.4089092 2 2 0
1.5591809 0.4086162 0.4086162 2 2 0
1.559083 0.4083226 0.4083226 2 2 0
1.5589852 0.4080284 0.4080284 2 2 0
1.5588874 0.4077336 0.4077336 2 2 0
1.5587895 0.4074382 0.4074382 2 2 0
1.5586917 0.4071422 0.4071422 2 2 0
1.5585939 0.4068456 0.4068456 2 2 0
1.558496 0.4065485 0.4065485 2 2 0
1.5583982 0.4062508 0.4062508 2 2 0
1.5583004 0.4059525 0.4059525 2 2 0
1.5582026 0.4056537 0.4056537 2 2 0
1.5581047 0.4053543 0.4053543 2 2 0
1.5580069 0.4050545 0.4050545 2 2 0
1.5579091 0.4047541 0.4047541 2 2 0
1.5578112 0.4044532 0.4044532 2 2 0
1.5577134 0.4041517 0.4041517 2 2 0
1.5576156 0.4038498 0.4038498 2 2 0
1.5575178 0.4035474 0.4035474 2 2 0
1.5574199 0.4032445 0.4032445 2 2 0
1.5573221 0.4029412 0.4029412 2 2 0
1.5572243 0.4026374 0.4026374 2 2 0
1.5571264 0.4023331 0.4023331 2 2 0
1.5570286 0.4020284 0.4020284 2 2 0
1.5569308 0.4017233 0.4017233 2 2 0
1.5568329 0.4014178 0.4014178 2 2 0
1.5567351 0.4011118 0.4011118 2 2 0
1.5566373 0.4008054 0.4008054 2 2 0
1.5565395 0.4004987 0.4004987 2 2 0
1.5564416 0.4001916 0.4001916 2 2 0
1.5563438 0.3999143 0.3999143 2 2 0
1.556246 0.3996868 0.3996868 2 2 0
1.5561481 0.3994595 0.3994595 2 2 0
1.5560503 0.3992323 0.3992323 2 2 0
1.5559525 0.3990052 0.3990052 2 2 0
1.5558547 0.3987782 0.3987782 2 2 0
1.5557568 0.3985514 0.3985514 2 2 0
1.555659 0.3983248 0.3983248 2 2 0
1.5555612 0.3980983 0.3980983 2 2 0
1.5554633 0.397872 0.397872 2 2 0
1.5553655 0.3976458 0.3976458 2 2 0
1.5552677 0.3974199 0.3974199 2 2 0
1.5551698 0.3971941 0.3971941 2 2 0
1.555072 0.3969686 0.3969686 2 2 0
1.5549742 0.3967433 0.3967433 2 2 0
1.5548764 0.3965182 0.3965182 2 2 0
1.5547785 0.3962933 0.3962933 2 2 0
1.5546807 0.3960687 0.3960687 2 2 0
1.5545829 0.3958444 0.3958444 2 2 0
1.554485 0.3956203 0.3956203 2 2 0
1.5543872 0.3953965 0.3953965 2 2 0
1.5542894 0.395173 0.395173 2 2 0
1.5541916 0.3949498 0.3949498 2 2 0
1.5540937 0.3947269 0.3947269 2 2 0
1.5539959 0.3945043 0.3945043 2 2 0
1.5538981 0.394282 0.394282 2 2 0
1.5538002 0.3940601 0.3940601 2 2 0
1.5537024 0.3938385 0.3938385 2 2 0
1.5536046 0.3936173 0.3936173 2 2 0
1.5535067 0.3933965 0.3933965 2 2 0
1.5534089 0.393176 0.393176 2 2 0
1.5533111 0.392956 0.392956 2 2 0
1.5532133 0.3927363 0.3927363 2 2 0
1.5531154 0.3925171 0.3925171 2 2 0
1.5530176 0.3922982 0.3922982 2 2 0
1.5529198 0.3920799 0.3920799 2 2 0
1.5528219 0.3918619 0.3918619 2 2 0
1.5527241 0.3916444 0.3916444 2 2 0
1.5526263 0.3914274 0.3914274 2 2 0
1.5525285 0.3912109 0.3912109 2 2 0
1.5524306 0.3909949 0.3909949 2 2 0
1.5523328 0.3907793 0.3907793 2 2 0
1.552235 0.3905643 0.3905643 2 2 0
1.5521371 0.3903498 0.3903498 2 2 0
1.5520393 0.3901358 0.3901358 2 2 0
1.5519415 0.389941 0.389941 2 2 0
1.5518436 0.3897793 0.3897793 2 2 0
1.5517458 0.3896181 0.3896181 2 2 0
1.551648 0.3894576 0.3894576 2 2 0
1.5515502 0.3892976 0.3892976 2 2 0
1.5514523 0.3891383 0.3891383 2 2 0
1.5513545 0.3889796 0.3889796 2 2 0
1.5512567 0.3888214 0.3888214 2 2 0
1.5511588 0.3885303 0.3885303 2 2 0
1.551061 0.3883399 0.3883399 2 2 0
1.5509632 0.3881525 0.3881525 2 2 0
1.5508654 0.3879116 0.3879116 2 2 0
1.5507675 0.3876625 0.3876625 2 2 0
1.5506697 0.3874134 0.3874134 2 2 0
1.5505719 0.3871643 0.3871643 2 2 0
1.550474 0.3869151 0.3869151 2 2 0
1.5503762 0.386666 0.386666 2 2 0
1.5502784 0.3864168 0.3864168 2 2 0
1.5501805 0.3861677 0.3861677 2 2 0
1.5500827 0.3859186 0.3859186 2 2 0
1.5499849 0.3856696 0.3856696 2 2 0
1.5498871 0.3854205 0.3854205 2 2 0
1.5497892 0.3851715 0.3851715 2 2 0
1.5496914 0.3849226 0.3849226 2 2 0
1.5495936 0.3846737 0.3846737 2 2 0
1.5494957 0.384425 0.384425 2 2 0
1.5493979 0.3841762 0.3841762 2 2 0
1.5493001 0.3839276 0.3839276 2 2 0
1.5492023 0.3836791 0.3836791 2 2 0
1.5491044 0.3834306 0.3834306 2 2 0
1.5490066 0.3831823 0.3831823 2 2 0
1.5489088 0.3829341 0.3829341 2 2 0
1.5488109 0.3826861 0.3826861 2 2 0
1.5487131 0.3824381 0.3824381 2 2 0
1.5486153 0.3821903 0.3821903 2 2 0
1.5485174 0.3819427 0.3819427 2 2 0
1.5484196 0.3816952 0.3816952 2 2 0
1.5483218 0.3814479 0.3814479 2 2 0
1.548224 0.3812008 0.3812008 2 2 0
1.5481261 0.3809539 0.3809539 2 2 0
1.5480283 0.3807072 0.3807072 2 2 0
1.5479305 0.3804607 0.3804607 2 2 0
1.5478326 0.3802144 0.3802144 2 2 0
1.5477348 0.3799753 0.3799753 2 2 0
1.547637 0.3797842 0.3797842 2 2 0
1.5475392 0.3795934 0.3795934 2 2 0
1.5474413 0.3794031 0.3794031 2 2 0
1.5473435 0.379213 0.379213 2 2 0
1.5472457 0.3790234 0.3790234 2 2 0
1.5471478 0.3788342 0.3788342 2 2 0
1.54705 0.3786453 0.3786453 2 2 0
1.5469522 0.3784569 0.3784569 2 2 0
1.5468543 0.3782688 0.3782688 2 2 0
1.5467565 0.3780812 0.3780812 2 2 0
1.5466587 0.377894 0.377894 2 2 0
1.5465609 0.3777073 0.3777073 2 2 0
1.546463 0.377521 0.377521 2 2 0
1.5463652 0.3773351 0.3773351 2 2 0
1.5462674 0.3771497 0.3771497 2 2 0
1.5461695 0.3769647 0.3769647 2 2 0
1.5460717 0.3767802 0.3767802 2 2 0
1.5459739 0.3765962 0.3765962 2 2 0
1.5458761 0.3764126 0.3764126 2 2 0
1.5457782 0.3762296 0.3762296 2 2 0
1.5456804 0.376047 0.376047 2 2 0
1.5455826 0.375865 0.375865 2 2 0
1.5454847 0.3756834 0.3756834 2 2 0
1.5453869 0.3755024 0.3755024 2 2 0
1.5452891 0.3753218 0.3753218 2 2 0
1.5451912 0.3751418 0.3751418 2 2 0
1.5450934 0.3749624 0.3749624 2 2 0
1.5449956 0.3747835 0.3747835 2 2 0
1.5448978 0.3746051 0.3746051 2 2 0
1.5447999 0.3744273 0.3744273 2 2 0
1.5447021 0.3742501 0.3742501 2 2 0
1.5446043 0.3740734 0.3740734 2 2 0
1.5445064 0.3738973 0.3738973 2 2 0
1.5444086 0.3737218 0.3737218 2 2 0
1.5443108 0.3735469 0.3735469 2 2 0
1.544213 0.3733726 0.3733726 2 2 0
1.5441151 0.3731989 0.3731989 2 2 0
1.5440173 0.3730258 0.3730258 2 2 0
1.5439195 0.3728533 0.3728533 2 2 0
1.5438216 0.3726814 0.3726814 2 2 0
1.5437238 0.3725102 0.3725102 2 2 0
1.543626 0.3723397 0.3723397 2 2 0
1.5435282 0.3721698 0.3721698 2 2 0
1.5434303 0.3720005 0.3720005 2 2 0
1.5433325 0.3718319 0.3718319 2 2 0
1.5432347 0.371664 0.371664 2 2 0
1.5431368 0.3714968 0.3714968 2 2 0
1.543039 0.3713302 0.3713302 2 2 0
1.5429412 0.3711481 0.3711481 2 2 0
1.5428433 0.3709471 0.3709471 2 2 0
1.5427455 0.3707627 0.3707627 2 2 0
1.5426477 0.3705758 0.3705758 2 2 0
1.5425499 0.3703175 0.3703175 2 2 0
1.542452 0.3700592 0.3700592 2 2 0
1.5423542 0.3698423 0.3698423 2 2 0
1.5422564 0.3696379 0.3696379 2 2 0
1.5421585 0.3694338 0.3694338 2 2 0
1.5420607 0.3692299 0.3692299 2 2 0
1.5419629 0.3690264 0.3690264 2 2 0
1.5418651 0.368823 0.368823 2 2 0
1.5417672 0.36862 0.36862 2 2 0
1.5416694 0.3684173 0.3684173 2 2 0
1.5415716 0.3682148 0.3682148 2 2 0
1.5414737 0.3680127 0.3680127 2 2 0
1.5413759 0.3678109 0.3678109 2 2 0
1.5412781 0.3676094 0.3676094 2 2 0
1.5411802 0.3674082 0.3674082 2 2 0
1.5410824 0.3672073 0.3672073 2 2 0
1.5409846 0.3670067 0.3670067 2 2 0
1.5408868 0.3668065 0.3668065 2 2 0
1.5407889 0.3666067 0.3666067 2 2 0
1.5406911 0.3664072 0.3664072 2 2 0
1.5405933 0.366208 0.366208 2 2 0
1.5404954 0.3660092 0.3660092 2 2 0
1.5403976 0.3658108 0.3658108 2 2 0
1.5402998 0.3656128 0.3656128 2 2 0
1.540202 0.3654151 0.3654151 2 2 0
1.5401041 0.3652178 0.3652178 2 2 0
1.5400063 0.3650209 0.3650209 2 2 0
1.5399085 0.3648244 0.3648244 2 2 0
1.5398106 0.3646284 0.3646284 2 2 0
1.5397128 0.3644327 0.3644327 2 2 0
1.539615 0.3642374 0.3642374 2 2 0
1.5395171 0.3640426 0.3640426 2 2 0
1.5394193 0.3638482 0.3638482 2 2 0
1.5393215 0.3636542 0.3636542 2 2 0
1.5392237 0.3634607 0.3634607 2 2 0
1.5391258 0.3632676 0.3632676 2 2 0
1.539028 0.363075 0.363075 2 2 0
1.5389302 0.3628829 0.3628829 2 2 0
1.5388323 0.3626912 0.3626912 2 2 0
1.5387345 0.3624999 0.3624999 2 2 0
1.5386367 0.3623092 0.3623092 2 2 0
1.5385389 0.362119 0.362119 2 2 0
1.538441 0.3619292 0.3619292 2 2 0
1.5383432 0.36174 0.36174 2 2 0
1.5382454 0.3615512 0.3615512 2 2 0
1.5381475 0.361363 0.361363 2 2 0
1.5380497 0.3611753 0.3611753 2 2 0
1.5379519 0.3609881 0.3609881 2 2 0
1.537854 0.3608014 0.3608014 2 2 0
1.5377562 0.3606153 0.3606153 2 2 0
1.5376584 0.3604297 0.3604297 2 2 0
1.5375606 0.3602447 0.3602447 2 2 0
1.5374627 0.3600603 0.3600603 2 2 0
1.5373649 0.3599004 0.3599004 2 2 0
1.5372671 0.3597526 0.3597526 2 2 0
1.5371692 0.3596055 0.3596055 2 2 0
1.5370714 0.3594588 0.3594588 2 2 0
1.5369736 0.3593128 0.3593128 2 2 0
1.5368758 0.3591672 0.3591672 2 2 0
1.5367779 0.3590223 0.3590223 2 2 0
1.5366801 0.3588779 0.3588779 2 2 0
1.5365823 0.358734 0.358734 2 2 0
1.5364844 0.3585908 0.3585908 2 2 0
1.5363866 0.3584481 0.3584481 2 2 0
1.5362888 0.358306 0.358306 2 2 0
1.5361909 0.3581645 0.3581645 2 2 0
1.5360931 0.3580236 0.3580236 2 2 0
1.5359953 0.3578833 0.3578833 2 2 0
1.5358975 0.3577435 0.3577435 2 2 0
1.5357996 0.3576044 0.3576044 2 2 0
1.5357018 0.3574659 0.3574659 2 2 0
1.535604 0.357328 0.357328 2 2 0
1.5355061 0.3571907 0.3571907 2 2 0
1.5354083 0.3570541 0.3570541 2 2 0
1.5353105 0.356918 0.356918 2 2 0
1.5352127 0.3567827 0.3567827 2 2 0
1.5351148 0.3566479 0.3566479 2 2 0
1.535017 0.3565138 0.3565138 2 2 0
1.5349192 0.3563803 0.3563803 2 2 0
1.5348213 0.3562475 0.3562475 2 2 0
1.5347235 0.3561153 0.3561153 2 2 0
1.5346257 0.355964 0.355964 2 2 0
1.5345278 0.3556854 0.3556854 2 2 0
1.53443 0.3555462 0.3555462 2 2 0
1.5343322 0.3554491 0.3554491 2 2 0
1.5342344 0.3552623 0.3552623 2 2 0
1.5341365 0.3550592 0.3550592 2 2 0
1.5340387 0.3548564 0.3548564 2 2 0
1.5339409 0.354654 0.354654 2 2 0
1.533843 0.3544519 0.3544519 2 2 0
1.5337452 0.3542501 0.3542501 2 2 0
1.5336474 0.3540487 0.3540487 2 2 0
1.5335496 0.3538477 0.3538477 2 2 0
1.5334517 0.353647 0.353647 2 2 0
1.5333539 0.3534467 0.3534467 2 2 0
1.5332561 0.3532468 0.3532468 2 2 0
1.5331582 0.3530473 0.3530473 2 2 0
1.5330604 0.3528481 0.3528481 2 2 0
1.5329626 0.3526493 0.3526493 2 2 0
1.5328647 0.352451 0.352451 2 2 0
1.5327669 0.352253 0.352253 2 2 0
1.5326691 0.3520555 0.3520555 2 2 0
1.5325713 0.3518584 0.3518584 2 2 0
1.5324734 0.3516617 0.3516617 2 2 0
1.5323756 0.3514654 0.3514654 2 2 0
1.5322778 0.3512695 0.3512695 2 2 0
1.5321799 0.3510741 0.3510741 2 2 0
1.5320821 0.3508792 0.3508792 2 2 0
1.5319843 0.3506846 0.3506846 2 2 0
1.5318865 0.3504906 0.3504906 2 2 0
1.5317886 0.350297 0.350297 2 2 0
1.5316908 0.3501039 0.3501039 2 2 0
1.531593 0.3499274 0.3499274 2 2 0
1.5314951 0.3497703 0.3497703 2 2 0
1.5313973 0.3496137 0.3496137 2 2 0
1.5312995 0.3494575 0.3494575 2 2 0
1.5312016 0.3493018 0.3493018 2 2 0
1.5311038 0.3491466 0.3491466 2 2 0
1.531006 0.3489919 0.3489919 2 2 0
1.5309082 0.3488377 0.3488377 2 2 0
1.5308103 0.348684 0.348684 2 2 0
1.5307125 0.3485307 0.3485307 2 2 0
1.5306147 0.348378 0.348378 2 2 0
1.5305168 0.3482258 0.3482258 2 2 0
1.530419 0.3480741 0.3480741 2 2 0
1.5303212 0.3479229 0.3479229 2 2 0
1.5302234 0.3477722 0.3477722 2 2 0
1.5301255 0.347622 0.347622 2 2 0
1.5300277 0.3474724 0.3474724 2 2 0
1.5299299 0.3473233 0.3473233 2 2 0
1.529832 0.3471747 0.3471747 2 2 0
1.5297342 0.3470267 0.3470267 2 2 0
1.5296364 0.3468792 0.3468792 2 2 0
1.5295386 0.3467323 0.3467323 2 2 0
1.5294407 0.3465859 0.3465859 2 2 0
1.5293429 0.3464401 0.3464401 2 2 0
1.5292451 0.3462948 0.3462948 2 2 0
1.5291472 0.3461501 0.3461501 2 2 0
1.5290494 0.346006 0.346006 2 2 0
1.5289516 0.3458624 0.3458624 2 2 0
1.5288537 0.3457194 0.3457194 2 2 0
1.5287559 0.345577 0.345577 2 2 0
1.5286581 0.3454352 0.3454352 2 2 0
1.5285603 0.345294 0.345294 2 2 0
1.5284624 0.3451534 0.3451534 2 2 0
1.5283646 0.3450133 0.3450133 2 2 0
1.5282668 0.3448739 0.3448739 2 2 0
1.5281689 0.344735 0.344735 2 2 0
1.5280711 0.3445968 0.3445968 2 2 0
1.5279733 0.3444592 0.3444592 2 2 0
1.5278755 0.3443222 0.3443222 2 2 0
1.5277776 0.3441859 0.3441859 2 2 0
1.5276798 0.3440501 0.3440501 2 2 0
1.527582 0.343915 0.343915 2 2 0
1.5274841 0.3437806 0.3437806 2 2 0
1.5273863 0.3436467 0.3436467 2 2 0
1.5272885 0.3435135 0.3435135 2 2 0
1.5271906 0.343381 0.343381 2 2 0
1.5270928 0.3432491 0.3432491 2 2 0
1.526995 0.3431178 0.3431178 2 2 0
1.5268972 0.3429873 0.3429873 2 2 0
1.5267993 0.3428573 0.3428573 2 2 0
1.5267015 0.3427252 0.3427252 2 2 0
1.5266037 0.3425568 0.3425568 2 2 0
1.5265058 0.3423713 0.3423713 2 2 0
1.526408 0.3422206 0.3422206 2 2 0
1.5263102 0.3421358 0.3421358 2 2 0
1.5262124 0.3419385 0.3419385 2 2 0
1.5261145 0.3417417 0.3417417 2 2 0
1.5260167 0.3415452 0.3415452 2 2 0
1.5259189 0.3413491 0.3413491 2 2 0
1.525821 0.3411534 0.3411534 2 2 0
1.5257232 0.3409582 0.3409582 2 2 0
1.5256254 0.3407633 0.3407633 2 2 0
1.5255275 0.3405689 0.3405689 2 2 0
1.5254297 0.3403749 0.3403749 2 2 0
1.5253319 0.3401813 0.3401813 2 2 0
1.5252341 0.3399902 0.3399902 2 2 0
1.5251362 0.3398306 0.3398306 2 2 0
1.5250384 0.3396715 0.3396715 2 2 0
1.5249406 0.3395128 0.3395128 2 2 0
1.5248427 0.3393546 0.3393546 2 2 0
1.5247449 0.3391968 0.3391968 2 2 0
1.5246471 0.3390394 0.3390394 2 2 0
1.5245493 0.3388825 0.3388825 2 2 0
1.5244514 0.3387261 0.3387261 2 2 0
1.5243536 0.3385701 0.3385701 2 2 0
1.5242558 0.3384146 0.3384146 2 2 0
1.5241579 0.3382595 0.3382595 2 2 0
1.5240601 0.3381049 0.3381049 2 2 0
1.5239623 0.3379508 0.3379508 2 2 0
1.5238644 0.3377971 0.3377971 2 2 0
1.5237666 0.337644 0.337644 2 2 0
1.5236688 0.3374913 0.3374913 2 2 0
1.523571 0.3373391 0.3373391 2 2 0
1.5234731 0.3371874 0.3371874 2 2 0
1.5233753 0.3370362 0.3370362 2 2 0
1.5232775 0.3368855 0.3368855 2 2 0
1.5231796 0.3367353 0.3367353 2 2 0
1.5230818 0.3365856 0.3365856 2 2 0
1.522984 0.3364364 0.3364364 2 2 0
1.5228862 0.3362877 0.3362877 2 2 0
1.5227883 0.3361395 0.3361395 2 2 0
1.5226905 0.3359919 0.3359919 2 2 0
1.5225927 0.3358448 0.3358448 2 2 0
1.5224948 0.3356982 0.3356982 2 2 0
1.522397 0.3355521 0.3355521 2 2 0
1.5222992 0.3354066 0.3354066 2 2 0
1.5222013 0.3352616 0.3352616 2 2 0
1.5221035 0.3351172 0.3351172 2 2 0
1.5220057 0.3349733 0.3349733 2 2 0
1.5219079 0.3348299 0.3348299 2 2 0
1.52181 0.3346872 0.3346872 2 2 0
1.5217122 0.3345449 0.3345449 2 2 0
1.5216144 0.3344033 0.3344033 2 2 0
1.5215165 0.3342622 0.3342622 2 2 0
1.5214187 0.3341216 0.3341216 2 2 0
1.5213209 0.3339817 0.3339817 2 2 0
1.5212231 0.3338423 0.3338423 2 2 0
1.5211252 0.3337035 0.3337035 2 2 0
1.5210274 0.3335653 0.3335653 2 2 0
1.5209296 0.3334276 0.3334276 2 2 0
1.5208317 0.3332906 0.3332906 2 2 0
1.5207339 0.3331541 0.3331541 2 2 0
1.5206361 0.3330183 0.3330183 2 2 0
1.5205382 0.332883 0.332883 2 2 0
1.5204404 0.3327484 0.3327484 2 2 0
1.5203426 0.3326144 0.3326144 2 2 0
1.5202448 0.332481 0.332481 2 2 0
1.5201469 0.3323482 0.3323482 2 2 0
1.5200491 0.332216 0.332216 2 2 0
1.5199513 0.3320844 0.3320844 2 2 0
1.5198534 0.3319535 0.3319535 2 2 0
1.5197556 0.3318232 0.3318232 2 2 0
1.5196578 0.3316935 0.3316935 2 2 0
1.51956 0.3315645 0.3315645 2 2 0
1.5194621 0.3314361 0.3314361 2 2 0
1.5193643 0.3313084 0.3313084 2 2 0
1.5192665 0.3311813 0.3311813 2 2 0
1.5191686 0.3310549 0.3310549 2 2 0
1.5190708 0.3309291 0.3309291 2 2 0
1.518973 0.330804 0.330804 2 2 0
1.5188751 0.3306774 0.3306774 2 2 0
1.5187773 0.3305477 0.3305477 2 2 0
1.5186795 0.330417 0.330417 2 2 0
1.5185817 0.3302926 0.3302926 2 2 0
1.5184838 0.3301711 0.3301711 2 2 0
1.518386 0.329985 0.329985 2 2 0
1.5182882 0.3298236 0.3298236 2 2 0
1.5181903 0.3296678 0.3296678 2 2 0
1.5180925 0.3295142 0.3295142 2 2 0
1.5179947 0.3293596 0.3293596 2 2 0
1.5178969 0.3292042 0.3292042 2 2 0
1.517799 0.3290491 0.3290491 2 2 0
1.5177012 0.3288945 0.3288945 2 2 0
1.5176034 0.3287404 0.3287404 2 2 0
1.5175055 0.3285867 0.3285867 2 2 0
1.5174077 0.3284334 0.3284334 2 2 0
1.5173099 0.3282806 0.3282806 2 2 0
1.517212 0.3281282 0.3281282 2 2 0
1.5171142 0.3279763 0.3279763 2 2 0
1.5170164 0.3278248 0.3278248 2 2 0
1.5169186 0.3276738 0.3276738 2 2 0
1.5168207 0.3275233 0.3275233 2 2 0
1.5167229 0.3273732 0.3273732 2 2 0
1.5166251 0.3272236 0.3272236 2 2 0
1.5165272 0.3270745 0.3270745 2 2 0
1.5164294 0.3269258 0.3269258 2 2 0
1.5163316 0.3267777 0.3267777 2 2 0
1.5162338 0.32663 0.32663 2 2 0
1.5161359 0.3264828 0.3264828 2 2 0
1.5160381 0.3263361 0.3263361 2 2 0
1.5159403 0.3261899 0.3261899 2 2 0
1.5158424 0.3260442 0.3260442 2 2 0
1.5157446 0.325899 0.325899 2 2 0
1.5156468 0.3257543 0.3257543 2 2 0
1.515549 0.3256101 0.3256101 2 2 0
1.5154511 0.3254664 0.3254664 2 2 0
1.5153533 0.3253232 0.3253232 2 2 0
1.5152555 0.3251805 0.3251805 2 2 0
1.5151576 0.3250384 0.3250384 2 2 0
1.5150598 0.3248968 0.3248968 2 2 0
1.514962 0.3247557 0.3247557 2 2 0
1.5148641 0.3246151 0.3246151 2 2 0
1.5147663 0.3244751 0.3244751 2 2 0
1.5146685 0.3243356 0.3243356 2 2 0
1.5145707 0.3241967 0.3241967 2 2 0
1.5144728 0.3240582 0.3240582 2 2 0
1.514375 0.3239204 0.3239204 2 2 0
1.5142772 0.3237831 0.3237831 2 2 0
1.5141793 0.3236463 0.3236463 2 2 0
1.5140815 0.3235101 0.3235101 2 2 0
1.5139837 0.3233745 0.3233745 2 2 0
1.5138859 0.3232394 0.3232394 2 2 0
1.513788 0.3231049 0.3231049 2 2 0
1.5136902 0.3229709 0.3229709 2 2 0
1.5135924 0.3228376 0.3228376 2 2 0
1.5134945 0.3227048 0.3227048 2 2 0
1.5133967 0.3225725 0.3225725 2 2 0
1.5132989 0.3224409 0.3224409 2 2 0
1.513201 0.3223099 0.3223099 2 2 0
1.5131032 0.3221794 0.3221794 2 2 0
1.5130054 0.3220495 0.3220495 2 2 0
1.5129076 0.3219203 0.3219203 2 2 0
1.5128097 0.3217916 0.3217916 2 2 0
1.5127119 0.3216635 0.3216635 2 2 0
1.5126141 0.321536 0.321536 2 2 0
1.5125162 0.3214092 0.3214092 2 2 0
1.5124184 0.3212829 0.3212829 2 2 0
1.5123206 0.3211573 0.3211573 2 2 0
1.5122228 0.3210322 0.3210322 2 2 0
1.5121249 0.3209078 0.3209078 2 2 0
1.5120271 0.3207841 0.3207841 2 2 0
1.5119293 0.3206609 0.3206609 2 2 0
1.5118314 0.3205384 0.3205384 2 2 0
1.5117336 0.3204165 0.3204165 2 2 0
1.5116358 0.3202952 0.3202952 2 2 0
1.5115379 0.3201746 0.3201746 2 2 0
1.5114401 0.3200547 0.3200547 2 2 0
1.5113423 0.3199453 0.3199453 2 2 0
1.5112445 0.319845 0.319845 2 2 0
1.5111466 0.3197452 0.3197452 2 2 0
1.5110488 0.3196461 0.3196461 2 2 0
1.510951 0.3195475 0.3195475 2 2 0
1.5108531 0.3194494 0.3194494 2 2 0
1.5107553 0.3193121 0.3193121 2 2 0
1.5106575 0.3191655 0.3191655 2 2 0
1.5105597 0.3190263 0.3190263 2 2 0
1.5104618 0.3188911 0.3188911 2 2 0
1.510364 0.3187516 0.3187516 2 2 0
1.5102662 0.3186092 0.3186092 2 2 0
1.5101683 0.3184617 0.3184617 2 2 0
1.5100705 0.3183147 0.3183147 2 2 0
1.5099727 0.3181682 0.3181682 2 2 0
1.5098748 0.3180221 0.3180221 2 2 0
1.509777 0.3178765 0.3178765 2 2 0
1.5096792 0.3177313 0.3177313 2 2 0
1.5095814 0.3175866 0.3175866 2 2 0
1.5094835 0.3174423 0.3174423 2 2 0
1.5093857 0.3172985 0.3172985 2 2 0
1.5092879 0.3171552 0.3171552 2 2 0
1.50919 0.3170124 0.3170124 2 2 0
1.5090922 0.31687 0.31687 2 2 0
1.5089944 0.3167281 0.3167281 2 2 0
1.5088966 0.3165867 0.3165867 2 2 0
1.5087987 0.3164457 0.3164457 2 2 0
1.5087009 0.3163053 0.3163053 2 2 0
1.5086031 0.3161653 0.3161653 2 2 0
1.5085052 0.3160258 0.3160258 2 2 0
1.5084074 0.3158868 0.3158868 2 2 0
1.5083096 0.3157484 0.3157484 2 2 0
1.5082117 0.3156104 0.3156104 2 2 0
1.5081139 0.3154729 0.3154729 2 2 0
1.5080161 0.3153359 0.3153359 2 2 0
1.5079183 0.3151994 0.3151994 2 2 0
1.5078204 0.3150635 0.3150635 2 2 0
1.5077226 0.314928 0.314928 2 2 0
1.5076248 0.3147931 0.3147931 2 2 0
1.5075269 0.3146587 0.3146587 2 2 0
1.5074291 0.3145248 0.3145248 2 2 0
1.5073313 0.3143915 0.3143915 2 2 0
1.5072335 0.3142586 0.3142586 2 2 0
1.5071356 0.3141263 0.3141263 2 2 0
1.5070378 0.3139946 0.3139946 2 2 0
1.50694 0.3138633 0.3138633 2 2 0
1.5068421 0.3137326 0.3137326 2 2 0
1.5067443 0.3136025 0.3136025 2 2 0
1.5066465 0.3134729 0.3134729 2 2 0
1.5065486 0.3133438 0.3133438 2 2 0
1.5064508 0.3132153 0.3132153 2 2 0
1.506353 0.3130874 0.3130874 2 2 0
1.5062552 0.31296 0.31296 2 2 0
1.5061573 0.3128331 0.3128331 2 2 0
1.5060595 0.3127069 0.3127069 2 2 0
1.5059617 0.3125812 0.3125812 2 2 0
1.5058638 0.312456 0.312456 2 2 0
1.505766 0.3123315 0.3123315 2 2 0
1.5056682 0.3122075 0.3122075 2 2 0
1.5055704 0.312084 0.312084 2 2 0
1.5054725 0.3119612 0.3119612 2 2 0
1.5053747 0.3118389 0.3118389 2 2 0
1.5052769 0.3117173 0.3117173 2 2 0
1.505179 0.3115962 0.3115962 2 2 0
1.5050812 0.3114757 0.3114757 2 2 0
1.5049834 0.3113558 0.3113558 2 2 0
1.5048855 0.3112365 0.3112365 2 2 0
1.5047877 0.3111177 0.3111177 2 2 0
1.5046899 0.3109996 0.3109996 2 2 0
1.5045921 0.3108821 0.3108821 2 2 0
1.5044942 0.3107652 0.3107652 2 2 0
1.5043964 0.3106489 0.3106489 2 2 0
1.5042986 0.3105333 0.3105333 2 2 0
1.5042007 0.3104182 0.3104182 2 2 0
1.5041029 0.3103037 0.3103037 2 2 0
1.5040051 0.3101899 0.3101899 2 2 0
1.5039073 0.3100767 0.3100767 2 2 0
1.5038094 0.3099694 0.3099694 2 2 0
1.5037116 0.3098739 0.3098739 2 2 0
1.5036138 0.309779 0.309779 2 2 0
1.5035159 0.3096846 0.3096846 2 2 0
1.5034181 0.3095908 0.3095908 2 2 0
1.5033203 0.3094976 0.3094976 2 2 0
1.5032224 0.3094049 0.3094049 2 2 0
1.5031246 0.3092583 0.3092583 2 2 0
1.5030268 0.3091233 0.3091233 2 2 0
1.502929 0.3089928 0.3089928 2 2 0
1.5028311 0.3088642 0.3088642 2 2 0
1.5027333 0.3087327 0.3087327 2 2 0
1.5026355 0.3085989 0.3085989 2 2 0
1.5025376 0.3084603 0.3084603 2 2 0
1.5024398 0.3083221 0.3083221 2 2 0
1.502342 0.3081844 0.3081844 2 2 0
1.5022442 0.3080472 0.3080472 2 2 0
1.5021463 0.3079104 0.3079104 2 2 0
1.5020485 0.3077741 0.3077741 2 2 0
1.5019507 0.3076382 0.3076382 2 2 0
1.5018528 0.3075028 0.3075028 2 2 0
1.501755 0.3073678 0.3073678 2 2 0
1.5016572 0.3072334 0.3072334 2 2 0
1.5015593 0.3070994 0.3070994 2 2 0
1.5014615 0.3069659 0.3069659 2 2 0
1.5013637 0.3068328 0.3068328 2 2 0
1.5012659 0.3067003 0.3067003 2 2 0
1.501168 0.3065682 0.3065682 2 2 0
1.5010702 0.3064366 0.3064366 2 2 0
1.5009724 0.3063055 0.3063055 2 2 0
1.5008745 0.3061749 0.3061749 2 2 0
1.5007767 0.3060448 0.3060448 2 2 0
1.5006789 0.3059152 0.3059152 2 2 0
1.5005811 0.3057861 0.3057861 2 2 0
1.5004832 0.3056574 0.3056574 2 2 0
1.5003854 0.3055293 0.3055293 2 2 0
1.5002876 0.3054017 0.3054017 2 2 0
1.5001897 0.3052746 0.3052746 2 2 0
1.5000919 0.305148 0.305148 2 2 0
1.4999941 0.3050219 0.3050219 2 2 0
1.4998963 0.3048964 0.3048964 2 2 0
1.4997984 0.3047713 0.3047713 2 2 0
1.4997006 0.3046468 0.3046468 2 2 0
1.4996028 0.3045228 0.3045228 2 2 0
1.4995049 0.3043993 0.3043993 2 2 0
1.4994071 0.3042764 0.3042764 2 2 0
1.4993093 0.304154 0.304154 2 2 0
1.4992114 0.3040321 0.3040321 2 2 0
1.4991136 0.3039107 0.3039107 2 2 0
1.4990158 0.3037899 0.3037899 2 2 0
1.498918 0.3036696 0.3036696 2 2 0
1.4988201 0.3035499 0.3035499 2 2 0
1.4987223 0.3034307 0.3034307 2 2 0
1.4986245 0.3033121 0.3033121 2 2 0
1.4985266 0.303194 0.303194 2 2 0
1.4984288 0.3030765 0.3030765 2 2 0
1.498331 0.3029595 0.3029595 2 2 0
1.4982332 0.3028431 0.3028431 2 2 0
1.4981353 0.3027272 0.3027272 2 2 0
1.4980375 0.3026119 0.3026119 2 2 0
1.4979397 0.3024972 0.3024972 2 2 0
1.4978418 0.302383 0.302383 2 2 0
1.497744 0.3022694 0.3022694 2 2 0
1.4976462 0.3021564 0.3021564 2 2 0
1.4975483 0.302044 0.302044 2 2 0
1.4974505 0.3019321 0.3019321 2 2 0
1.4973527 0.3018208 0.3018208 2 2 0
1.4972549 0.3017101 0.3017101 2 2 0
1.497157 0.3015999 0.3015999 2 2 0
1.4970592 0.3014904 0.3014904 2 2 0
1.4969614 0.3013814 0.3013814 2 2 0
1.4968635 0.301273 0.301273 2 2 0
1.4967657 0.3011653 0.3011653 2 2 0
1.4966679 0.3010581 0.3010581 2 2 0
1.4965701 0.3009515 0.3009515 2 2 0
1.4964722 0.3008455 0.3008455 2 2 0
1.4963744 0.3007401 0.3007401 2 2 0
1.4962766 0.3006353 0.3006353 2 2 0
1.4961787 0.3005299 0.3005299 2 2 0
1.4960809 0.3004232 0.3004232 2 2 0
1.4959831 0.3003179 0.3003179 2 2 0
1.4958852 0.3002144 0.3002144 2 2 0
1.4957874 0.3001145 0.3001145 2 2 0
1.4956896 0.3000126 0.3000126 2 2 0
1.4955918 0.299873 0.299873 2 2 0
1.4954939 0.2997387 0.2997387 2 2 0
1.4953961 0.2996086 0.2996086 2 2 0
1.4952983 0.2994797 0.2994797 2 2 0
1.4952004 0.2993524 0.2993524 2 2 0
1.4951026 0.2992246 0.2992246 2 2 0
1.4950048 0.2990951 0.2990951 2 2 0
1.494907 0.2989661 0.2989661 2 2 0
1.4948091 0.2988375 0.2988375 2 2 0
1.4947113 0.2987094 0.2987094 2 2 0
1.4946135 0.2985817 0.2985817 2 2 0
1.4945156 0.2984545 0.2984545 2 2 0
1.4944178 0.2983278 0.2983278 2 2 0
1.49432 0.2982015 0.2982015 2 2 0
1.4942221 0.2980756 0.2980756 2 2 0
1.4941243 0.2979503 0.2979503 2 2 0
1.4940265 0.2978254 0.2978254 2 2 0
1.4939287 0.297701 0.297701 2 2 0
1.4938308 0.2975771 0.2975771 2 2 0
1.493733 0.2974536 0.2974536 2 2 0
1.4936352 0.2973306 0.2973306 2 2 0
1.4935373 0.2972081 0.2972081 2 2 0
1.4934395 0.2970861 0.2970861 2 2 0
1.4933417 0.2969646 0.2969646 2 2 0
1.4932439 0.2968435 0.2968435 2 2 0
1.493146 0.296723 0.296723 2 2 0
1.4930482 0.2966029 0.2966029 2 2 0
1.4929504 0.2964834 0.2964834 2 2 0
1.4928525 0.2963643 0.2963643 2 2 0
1.4927547 0.2962457 0.2962457 2 2 0
1.4926569 0.2961277 0.2961277 2 2 0
1.492559 0.2960101 0.2960101 2 2 0
1.4924612 0.295893 0.295893 2 2 0
1.4923634 0.2957765 0.2957765 2 2 0
1.4922656 0.2956604 0.2956604 2 2 0
1.4921677 0.2955449 0.2955449 2 2 0
1.4920699 0.2954299 0.2954299 2 2 0
1.4919721 0.2953154 0.2953154 2 2 0
1.4918742 0.2952014 0.2952014 2 2 0
1.4917764 0.2950879 0.2950879 2 2 0
1.4916786 0.2949749 0.2949749 2 2 0
1.4915808 0.2948625 0.2948625 2 2 0
1.4914829 0.2947506 0.2947506 2 2 0
1.4913851 0.2946392 0.2946392 2 2 0
1.4912873 0.2945284 0.2945284 2 2 0
1.4911894 0.2944181 0.2944181 2 2 0
1.4910916 0.2943083 0.2943083 2 2 0
1.4909938 0.2941991 0.2941991 2 2 0
1.4908959 0.2940904 0.2940904 2 2 0
1.4907981 0.2939822 0.2939822 2 2 0
1.4907003 0.2938746 0.2938746 2 2 0
1.4906025 0.2937675 0.2937675 2 2 0
1.4905046 0.293661 0.293661 2 2 0
1.4904068 0.293555 0.293555 2 2 0
1.490309 0.2934496 0.2934496 2 2 0
1.4902111 0.2933447 0.2933447 2 2 0
1.4901133 0.2932404 0.2932404 2 2 0
1.4900155 0.2931366 0.2931366 2 2 0
1.4899177 0.2930334 0.2930334 2 2 0
1.4898198 0.2929308 0.2929308 2 2 0
1.489722 0.2928287 0.2928287 2 2 0
1.4896242 0.2927272 0.2927272 2 2 0
1.4895263 0.2926262 0.2926262 2 2 0
1.4894285 0.2925258 0.2925258 2 2 0
1.4893307 0.292426 0.292426 2 2 0
1.4892328 0.2923268 0.2923268 2 2 0
1.489135 0.2922281 0.2922281 2 2 0
1.4890372 0.29213 0.29213 2 2 0
1.4889394 0.2920325 0.2920325 2 2 0
1.4888415 0.2919324 0.2919324 2 2 0
1.4887437 0.2918234 0.2918234 2 2 0
1.4886459 0.291712 0.291712 2 2 0
1.488548 0.2915968 0.2915968 2 2 0
1.4884502 0.2914851 0.2914851 2 2 0
1.4883524 0.2914148 0.2914148 2 2 0
1.4882546 0.2912949 0.2912949 2 2 0
1.4881567 0.291153 0.291153 2 2 0
1.4880589 0.2910115 0.2910115 2 2 0
1.4879611 0.2908706 0.2908706 2 2 0
1.4878632 0.2907302 0.2907302 2 2 0
1.4877654 0.2905902 0.2905902 2 2 0
1.4876676 0.2904507 0.2904507 2 2 0
1.4875697 0.2903117 0.2903117 2 2 0
1.4874719 0.2901732 0.2901732 2 2 0
1.4873741 0.2900352 0.2900352 2 2 0
1.4872763 0.2899114 0.2899114 2 2 0
1.4871784 0.2897928 0.2897928 2 2 0
1.4870806 0.2896747 0.2896747 2 2 0
1.4869828 0.289557 0.289557 2 2 0
1.4868849 0.2894398 0.2894398 2 2 0
1.4867871 0.289323 0.289323 2 2 0
1.4866893 0.2892067 0.2892067 2 2 0
1.4865915 0.2890909 0.2890909 2 2 0
1.4864936 0.2889755 0.2889755 2 2 0
1.4863958 0.2888606 0.2888606 2 2 0
1.486298 0.2887462 0.2887462 2 2 0
1.4862001 0.2886322 0.2886322 2 2 0
1.4861023 0.2885187 0.2885187 2 2 0
1.4860045 0.2884057 0.2884057 2 2 0
1.4859067 0.2882932 0.2882932 2 2 0
1.4858088 0.2881811 0.2881811 2 2 0
1.485711 0.2880695 0.2880695 2 2 0
1.4856132 0.2879584 0.2879584 2 2 0
1.4855153 0.2878478 0.2878478 2 2 0
1.4854175 0.2877377 0.2877377 2 2 0
1.4853197 0.287628 0.287628 2 2 0
1.4852218 0.2875189 0.2875189 2 2 0
1.485124 0.2874102 0.2874102 2 2 0
1.4850262 0.287302 0.287302 2 2 0
1.4849284 0.2871943 0.2871943 2 2 0
1.4848305 0.2870872 0.2870872 2 2 0
1.4847327 0.2869805 0.2869805 2 2 0
1.4846349 0.2868743 0.2868743 2 2 0
1.484537 0.2867686 0.2867686 2 2 0
1.4844392 0.2866634 0.2866634 2 2 0
1.4843414 0.2865587 0.2865587 2 2 0
1.4842436 0.2864546 0.2864546 2 2 0
1.4841457 0.2863509 0.2863509 2 2 0
1.4840479 0.2862478 0.2862478 2 2 0
1.4839501 0.2861451 0.2861451 2 2 0
1.4838522 0.286043 0.286043 2 2 0
1.4837544 0.2859414 0.2859414 2 2 0
1.4836566 0.2858403 0.2858403 2 2 0
1.4835587 0.2857397 0.2857397 2 2 0
1.4834609 0.2856397 0.2856397 2 2 0
1.4833631 0.2855402 0.2855402 2 2 0
1.4832653 0.2854412 0.2854412 2 2 0
1.4831674 0.2853427 0.2853427 2 2 0
1.4830696 0.2852447 0.2852447 2 2 0
1.4829718 0.2851473 0.2851473 2 2 0
1.4828739 0.2850504 0.2850504 2 2 0
1.4827761 0.2849541 0.2849541 2 2 0
1.4826783 0.2848583 0.2848583 2 2 0
1.4825805 0.284763 0.284763 2 2 0
1.4824826 0.2846682 0.2846682 2 2 0
1.4823848 0.284574 0.284574 2 2 0
1.482287 0.2844804 0.2844804 2 2 0
1.4821891 0.2843873 0.2843873 2 2 0
1.4820913 0.2842947 0.2842947 2 2 0
1.4819935 0.2842027 0.2842027 2 2 0
1.4818956 0.2841112 0.2841112 2 2 0
1.4817978 0.2840203 0.2840203 2 2 0
1.4817 0.2839299 0.2839299 2 2 0
1.4816022 0.2838354 0.2838354 2 2 0
1.4815043 0.2837228 0.2837228 2 2 0
1.4814065 0.2835994 0.2835994 2 2 0
1.4813087 0.2834705 0.2834705 2 2 0
1.4812108 0.2833624 0.2833624 2 2 0
1.481113 0.2833097 0.2833097 2 2 0
1.4810152 0.283212 0.283212 2 2 0
1.4809174 0.283081 0.283081 2 2 0
1.4808195 0.2829505 0.2829505 2 2 0
1.4807217 0.2828205 0.2828205 2 2 0
1.4806239 0.2826909 0.2826909 2 2 0
1.480526 0.2825618 0.2825618 2 2 0
1.4804282 0.2824332 0.2824332 2 2 0
1.4803304 0.2823051 0.2823051 2 2 0
1.4802325 0.2821774 0.2821774 2 2 0
1.4801347 0.2820502 0.2820502 2 2 0
1.4800369 0.2819235 0.2819235 2 2 0
1.4799391 0.2817973 0.2817973 2 2 0
1.4798412 0.2816716 0.2816716 2 2 0
1.4797434 0.2815464 0.2815464 2 2 0
1.4796456 0.2814216 0.2814216 2 2 0
1.4795477 0.2812974 0.2812974 2 2 0
1.4794499 0.2811737 0.2811737 2 2 0
1.4793521 0.2810504 0.2810504 2 2 0
1.4792543 0.2809277 0.2809277 2 2 0
1.4791564 0.2808054 0.2808054 2 2 0
1.4790586 0.2806837 0.2806837 2 2 0
1.4789608 0.2805625 0.2805625 2 2 0
1.4788629 0.2804418 0.2804418 2 2 0
1.4787651 0.2803216 0.2803216 2 2 0
1.4786673 0.2802019 0.2802019 2 2 0
1.4785694 0.2800827 0.2800827 2 2 0
1.4784716 0.2799687 0.2799687 2 2 0
1.4783738 0.2798658 0.2798658 2 2 0
1.478276 0.2797633 0.2797633 2 2 0
1.4781781 0.2796614 0.2796614 2 2 0
1.4780803 0.2795599 0.2795599 2 2 0
1.4779825 0.2794588 0.2794588 2 2 0
1.4778846 0.2793583 0.2793583 2 2 0
1.4777868 0.2792582 0.2792582 2 2 0
1.477689 0.2791586 0.2791586 2 2 0
1.4775912 0.2790595 0.2790595 2 2 0
1.4774933 0.2789608 0.2789608 2 2 0
1.4773955 0.2788627 0.2788627 2 2 0
1.4772977 0.278765 0.278765 2 2 0
1.4771998 0.2786678 0.2786678 2 2 0
1.477102 0.2785711 0.2785711 2 2 0
1.4770042 0.2784749 0.2784749 2 2 0
1.4769063 0.2783792 0.2783792 2 2 0
1.4768085 0.278284 0.278284 2 2 0
1.4767107 0.2781892 0.2781892 2 2 0
1.4766129 0.278095 0.278095 2 2 0
1.476515 0.2780013 0.2780013 2 2 0
1.4764172 0.277908 0.277908 2 2 0
1.4763194 0.2778153 0.2778153 2 2 0
1.4762215 0.277723 0.277723 2 2 0
1.4761237 0.2776313 0.2776313 2 2 0
1.4760259 0.27754 0.27754 2 2 0
1.4759281 0.2774493 0.2774493 2 2 0
1.4758302 0.2773591 0.2773591 2 2 0
1.4757324 0.2772694 0.2772694 2 2 0
1.4756346 0.2771802 0.2771802 2 2 0
1.4755367 0.2770915 0.2770915 2 2 0
1.4754389 0.2770033 0.2770033 2 2 0
1.4753411 0.2769156 0.2769156 2 2 0
1.4752432 0.2768285 0.2768285 2 2 0
1.4751454 0.2767418 0.2767418 2 2 0
1.4750476 0.2766557 0.2766557 2 2 0
1.4749498 0.2765701 0.2765701 2 2 0
1.4748519 0.276485 0.276485 2 2 0
1.4747541 0.2764005 0.2764005 2 2 0
1.4746563 0.2763164 0.2763164 2 2 0
1.4745584 0.2762329 0.2762329 2 2 0
1.4744606 0.2761457 0.2761457 2 2 0
1.4743628 0.2760294 0.2760294 2 2 0
1.474265 0.2758836 0.2758836 2 2 0
1.4741671 0.2757689 0.2757689 2 2 0
1.4740693 0.2756921 0.2756921 2 2 0
1.4739715 0.2756097 0.2756097 2 2 0
1.4738736 0.2755127 0.2755127 2 2 0
1.4737758 0.2754003 0.2754003 2 2 0
1.473678 0.2752801 0.2752801 2 2 0
1.4735801 0.2751603 0.2751603 2 2 0
1.4734823 0.275041 0.275041 2 2 0
1.4733845 0.2749222 0.2749222 2 2 0
1.4732867 0.2748038 0.2748038 2 2 0
1.4731888 0.2746859 0.2746859 2 2 0
1.473091 0.2745684 0.2745684 2 2 0
1.4729932 0.2744514 0.2744514 2 2 0
1.4728953 0.2743349 0.2743349 2 2 0
1.4727975 0.2742189 0.2742189 2 2 0
1.4726997 0.2741033 0.2741033 2 2 0
1.4726019 0.2739882 0.2739882 2 2 0
1.472504 0.2738736 0.2738736 2 2 0
1.4724062 0.2737595 0.2737595 2 2 0
1.4723084 0.2736458 0.2736458 2 2 0
1.4722105 0.2735327 0.2735327 2 2 0
1.4721127 0.27342 0.27342 2 2 0
1.4720149 0.2733078 0.2733078 2 2 0
1.4719171 0.2731961 0.2731961 2 2 0
1.4718192 0.2730849 0.2730849 2 2 0
1.4717214 0.2729742 0.2729742 2 2 0
1.4716236 0.2728639 0.2728639 2 2 0
1.4715257 0.2727542 0.2727542 2 2 0
1.4714279 0.272645 0.272645 2 2 0
1.4713301 0.2725363 0.2725363 2 2 0
1.4712322 0.272428 0.272428 2 2 0
1.4711344 0.2723203 0.2723203 2 2 0
1.4710366 0.2722131 0.2722131 2 2 0
1.4709388 0.2721063 0.2721063 2 2 0
1.4708409 0.2720001 0.2720001 2 2 0
1.4707431 0.2718944 0.2718944 2 2 0
1.4706453 0.2717892 0.2717892 2 2 0
1.4705474 0.2716846 0.2716846 2 2 0
1.4704496 0.2715804 0.2715804 2 2 0
1.4703518 0.2714768 0.2714768 2 2 0
1.470254 0.2713736 0.2713736 2 2 0
1.4701561 0.271271 0.271271 2 2 0
1.4700583 0.2711689 0.2711689 2 2 0
1.4699605 0.2710674 0.2710674 2 2 0
1.4698626 0.2709663 0.2709663 2 2 0
1.4697648 0.2708658 0.2708658 2 2 0
1.469667 0.2707658 0.2707658 2 2 0
1.4695691 0.2706664 0.2706664 2 2 0
1.4694713 0.2705675 0.2705675 2 2 0
1.4693735 0.2704691 0.2704691 2 2 0
1.4692757 0.2703712 0.2703712 2 2 0
1.4691778 0.2702739 0.2702739 2 2 0
1.46908 0.2701771 0.2701771 2 2 0
1.4689822 0.2700809 0.2700809 2 2 0
1.4688843 0.269987 0.269987 2 2 0
1.4687865 0.2699036 0.2699036 2 2 0
1.4686887 0.2698207 0.2698207 2 2 0
1.4685909 0.2697383 0.2697383 2 2 0
1.468493 0.2696563 0.2696563 2 2 0
1.4683952 0.2695749 0.2695749 2 2 0
1.4682974 0.269494 0.269494 2 2 0
1.4681995 0.2694135 0.2694135 2 2 0
1.4681017 0.2693335 0.2693335 2 2 0
1.4680039 0.269254 0.269254 2 2 0
1.467906 0.2691751 0.2691751 2 2 0
1.4678082 0.2690966 0.2690966 2 2 0
1.4677104 0.2690186 0.2690186 2 2 0
1.4676126 0.2689411 0.2689411 2 2 0
1.4675147 0.2688641 0.2688641 2 2 0
1.4674169 0.2687876 0.2687876 2 2 0
1.4673191 0.2686489 0.2686489 2 2 0
1.4672212 0.2685452 0.2685452 2 2 0
1.4671234 0.2684441 0.2684441 2 2 0
1.4670256 0.2683455 0.2683455 2 2 0
1.4669278 0.2682427 0.2682427 2 2 0
1.4668299 0.2681394 0.2681394 2 2 0
1.4667321 0.2680374 0.2680374 2 2 0
1.4666343 0.2679268 0.2679268 2 2 0
1.4665364 0.2678166 0.2678166 2 2 0
1.4664386 0.2677069 0.2677069 2 2 0
1.4663408 0.2675976 0.2675976 2 2 0
1.4662429 0.2674888 0.2674888 2 2 0
1.4661451 0.2673804 0.2673804 2 2 0
1.4660473 0.2672724 0.2672724 2 2 0
1.4659495 0.267165 0.267165 2 2 0
1.4658516 0.2670579 0.2670579 2 2 0
1.4657538 0.2669514 0.2669514 2 2 0
1.465656 0.2668453 0.2668453 2 2 0
1.4655581 0.2667396 0.2667396 2 2 0
1.4654603 0.2666344 0.2666344 2 2 0
1.4653625 0.2665297 0.2665297 2 2 0
1.4652647 0.2664254 0.2664254 2 2 0
1.4651668 0.2663216 0.2663216 2 2 0
1.465069 0.2662183 0.2662183 2 2 0
1.4649712 0.2661154 0.2661154 2 2 0
1.4648733 0.2660131 0.2660131 2 2 0
1.4647755 0.2659111 0.2659111 2 2 0
1.4646777 0.2658097 0.2658097 2 2 0
1.4645798 0.2657087 0.2657087 2 2 0
1.464482 0.2656082 0.2656082 2 2 0
1.4643842 0.2655082 0.2655082 2 2 0
1.4642864 0.2654087 0.2654087 2 2 0
1.4641885 0.2653096 0.2653096 2 2 0
1.4640907 0.2652111 0.2652111 2 2 0
1.4639929 0.265113 0.265113 2 2 0
1.463895 0.2650154 0.2650154 2 2 0
1.4637972 0.2649183 0.2649183 2 2 0
1.4636994 0.2648217 0.2648217 2 2 0
1.4636016 0.2647255 0.2647255 2 2 0
1.4635037 0.2646299 0.2646299 2 2 0
1.4634059 0.2645347 0.2645347 2 2 0
1.4633081 0.2644401 0.2644401 2 2 0
1.4632102 0.2643459 0.2643459 2 2 0
1.4631124 0.2642522 0.2642522 2 2 0
1.4630146 0.2641591 0.2641591 2 2 0
1.4629167 0.2640664 0.2640664 2 2 0
1.4628189 0.2639742 0.2639742 2 2 0
1.4627211 0.2638826 0.2638826 2 2 0
1.4626233 0.2637914 0.2637914 2 2 0
1.4625254 0.2637008 0.2637008 2 2 0
1.4624276 0.2636106 0.2636106 2 2 0
1.4623298 0.263521 0.263521 2 2 0
1.4622319 0.2634319 0.2634319 2 2 0
1.4621341 0.2633432 0.2633432 2 2 0
1.4620363 0.2632551 0.2632551 2 2 0
1.4619385 0.2631675 0.2631675 2 2 0
1.4618406 0.2630805 0.2630805 2 2 0
1.4617428 0.2629939 0.2629939 2 2 0
1.461645 0.2629079 0.2629079 2 2 0
1.4615471 0.2628223 0.2628223 2 2 0
1.4614493 0.2627373 0.2627373 2 2 0
1.4613515 0.2626529 0.2626529 2 2 0
1.4612536 0.2625689 0.2625689 2 2 0
1.4611558 0.2624855 0.2624855 2 2 0
1.461058 0.2623959 0.2623959 2 2 0
1.4609602 0.2623019 0.2623019 2 2 0
1.4608623 0.2622087 0.2622087 2 2 0
1.4607645 0.2621074 0.2621074 2 2 0
1.4606667 0.2620086 0.2620086 2 2 0
1.4605688 0.2619122 0.2619122 2 2 0
1.460471 0.2618625 0.2618625 2 2 0
1.4603732 0.26176 0.26176 2 2 0
1.4602754 0.2616418 0.2616418 2 2 0
1.4601775 0.2615241 0.2615241 2 2 0
1.4600797 0.2614069 0.2614069 2 2 0
1.4599819 0.2612902 0.2612902 2 2 0
1.459884 0.2611739 0.2611739 2 2 0
1.4597862 0.261058 0.261058 2 2 0
1.4596884 0.2609427 0.2609427 2 2 0
1.4595905 0.2608278 0.2608278 2 2 0
1.4594927 0.2607134 0.2607134 2 2 0
1.4593949 0.2605995 0.2605995 2 2 0
1.4592971 0.2604861 0.2604861 2 2 0
1.4591992 0.2603731 0.2603731 2 2 0
1.4591014 0.2602607 0.2602607 2 2 0
1.4590036 0.2601487 0.2601487 2 2 0
1.4589057 0.2600372 0.2600372 2 2 0
1.4588079 0.2599349 0.2599349 2 2 0
1.4587101 0.2598376 0.2598376 2 2 0
1.4586123 0.2597407 0.2597407 2 2 0
1.4585144 0.2596442 0.2596442 2 2 0
1.4584166 0.2595481 0.2595481 2 2 0
1.4583188 0.2594526 0.2594526 2 2 0
1.4582209 0.2593574 0.2593574 2 2 0
1.4581231 0.2592627 0.2592627 2 2 0
1.4580253 0.2591685 0.2591685 2 2 0
1.4579275 0.2590747 0.2590747 2 2 0
1.4578296 0.2589814 0.2589814 2 2 0
1.4577318 0.2588885 0.2588885 2 2 0
1.457634 0.2587961 0.2587961 2 2 0
1.4575361 0.2587041 0.2587041 2 2 0
1.4574383 0.2586126 0.2586126 2 2 0
1.4573405 0.2585216 0.2585216 2 2 0
1.4572426 0.258431 0.258431 2 2 0
1.4571448 0.2583408 0.2583408 2 2 0
1.457047 0.2582512 0.2582512 2 2 0
1.4569492 0.258162 0.258162 2 2 0
1.4568513 0.2580733 0.2580733 2 2 0
1.4567535 0.257985 0.257985 2 2 0
1.4566557 0.2578972 0.2578972 2 2 0
1.4565578 0.2578099 0.2578099 2 2 0
1.45646 0.257723 0.257723 2 2 0
1.4563622 0.2576366 0.2576366 2 2 0
1.4562644 0.2575507 0.2575507 2 2 0
1.4561665 0.2574653 0.2574653 2 2 0
1.4560687 0.2573803 0.2573803 2 2 0
1.4559709 0.2572958 0.2572958 2 2 0
1.455873 0.2572118 0.2572118 2 2 0
1.4557752 0.2571283 0.2571283 2 2 0
1.4556774 0.2570452 0.2570452 2 2 0
1.4555795 0.2569627 0.2569627 2 2 0
1.4554817 0.2568806 0.2568806 2 2 0
1.4553839 0.256799 0.256799 2 2 0
1.4552861 0.2567179 0.2567179 2 2 0
1.4551882 0.2566372 0.2566372 2 2 0
1.4550904 0.2565571 0.2565571 2 2 0
1.4549926 0.2564775 0.2564775 2 2 0
1.4548947 0.2563983 0.2563983 2 2 0
1.4547969 0.2563196 0.2563196 2 2 0
1.4546991 0.2562414 0.2562414 2 2 0
1.4546013 0.2561638 0.2561638 2 2 0
1.4545034 0.2560866 0.2560866 2 2 0
1.4544056 0.2560099 0.2560099 2 2 0
1.4543078 0.2559337 0.2559337 2 2 0
1.4542099 0.2558451 0.2558451 2 2 0
1.4541121 0.2557436 0.2557436 2 2 0
1.4540143 0.2556197 0.2556197 2 2 0
1.4539164 0.2555064 0.2555064 2 2 0
1.4538186 0.255436 0.255436 2 2 0
1.4537208 0.2553671 0.2553671 2 2 0
1.453623 0.255279 0.255279 2 2 0
1.4535251 0.2551912 0.2551912 2 2 0
1.4534273 0.2550834 0.2550834 2 2 0
1.4533295 0.2549759 0.2549759 2 2 0
1.4532316 0.2548689 0.2548689 2 2 0
1.4531338 0.2547624 0.2547624 2 2 0
1.453036 0.2546563 0.2546563 2 2 0
1.4529382 0.2545507 0.2545507 2 2 0
1.4528403 0.2544455 0.2544455 2 2 0
1.4527425 0.2543408 0.2543408 2 2 0
1.4526447 0.2542365 0.2542365 2 2 0
1.4525468 0.2541327 0.2541327 2 2 0
1.452449 0.2540294 0.2540294 2 2 0
1.4523512 0.2539265 0.2539265 2 2 0
1.4522533 0.2538241 0.2538241 2 2 0
1.4521555 0.2537221 0.2537221 2 2 0
1.4520577 0.2536207 0.2536207 2 2 0
1.4519599 0.2535196 0.2535196 2 2 0
1.451862 0.2534191 0.2534191 2 2 0
1.4517642 0.253319 0.253319 2 2 0
1.4516664 0.2532194 0.2532194 2 2 0
1.4515685 0.2531203 0.2531203 2 2 0
1.4514707 0.2530216 0.2530216 2 2 0
1.4513729 0.2529234 0.2529234 2 2 0
1.4512751 0.2528257 0.2528257 2 2 0
1.4511772 0.2527285 0.2527285 2 2 0
1.4510794 0.2526317 0.2526317 2 2 0
1.4509816 0.2525354 0.2525354 2 2 0
1.4508837 0.2524397 0.2524397 2 2 0
1.4507859 0.2523443 0.2523443 2 2 0
1.4506881 0.2522495 0.2522495 2 2 0
1.4505902 0.2521552 0.2521552 2 2 0
1.4504924 0.2520613 0.2520613 2 2 0
1.4503946 0.251968 0.251968 2 2 0
1.4502968 0.2518751 0.2518751 2 2 0
1.4501989 0.2517827 0.2517827 2 2 0
1.4501011 0.2516909 0.2516909 2 2 0
1.4500033 0.2515995 0.2515995 2 2 0
1.4499054 0.2515086 0.2515086 2 2 0
1.4498076 0.2514182 0.2514182 2 2 0
1.4497098 0.2513283 0.2513283 2 2 0
1.449612 0.2512389 0.2512389 2 2 0
1.4495141 0.25115 0.25115 2 2 0
1.4494163 0.2510616 0.2510616 2 2 0
1.4493185 0.2509737 0.2509737 2 2 0
1.4492206 0.2508863 0.2508863 2 2 0
1.4491228 0.2507995 0.2507995 2 2 0
1.449025 0.2507131 0.2507131 2 2 0
1.4489271 0.2506272 0.2506272 2 2 0
1.4488293 0.2505419 0.2505419 2 2 0
1.4487315 0.250457 0.250457 2 2 0
1.4486337 0.2503727 0.2503727 2 2 0
1.4485358 0.2502889 0.2502889 2 2 0
1.448438 0.2502056 0.2502056 2 2 0
1.4483402 0.2501228 0.2501228 2 2 0
1.4482423 0.2500405 0.2500405 2 2 0
1.4481445 0.2499635 0.2499635 2 2 0
1.4480467 0.2498916 0.2498916 2 2 0
1.4479489 0.2498201 0.2498201 2 2 0
1.447851 0.2497492 0.2497492 2 2 0
1.4477532 0.2496786 0.2496786 2 2 0
1.4476554 0.2496086 0.2496086 2 2 0
1.4475575 0.249539 0.249539 2 2 0
1.4474597 0.2494641 0.2494641 2 2 0
1.4473619 0.2493521 0.2493521 2 2 0
1.447264 0.249253 0.249253 2 2 0
1.4471662 0.2491561 0.2491561 2 2 0
1.4470684 0.2490611 0.2490611 2 2 0
1.4469706 0.2489645 0.2489645 2 2 0
1.4468727 0.2488686 0.2488686 2 2 0
1.4467749 0.248774 0.248774 2 2 0
1.4466771 0.2486795 0.2486795 2 2 0
1.4465792 0.2485814 0.2485814 2 2 0
1.4464814 0.2484837 0.2484837 2 2 0
1.4463836 0.2483864 0.2483864 2 2 0
1.4462858 0.2482896 0.2482896 2 2 0
1.4461879 0.2481932 0.2481932 2 2 0
1.4460901 0.2480973 0.2480973 2 2 0
1.4459923 0.2480017 0.2480017 2 2 0
1.4458944 0.2479067 0.2479067 2 2 0
1.4457966 0.247812 0.247812 2 2 0
1.4456988 0.2477178 0.2477178 2 2 0
1.4456009 0.2476241 0.2476241 2 2 0
